ply
format ascii 1.0
comment PCL generated
element vertex 1494
property float x
property float y
property float z
element camera 0
property float view_px
property float view_py
property float view_pz
property float x_axisx
property float x_axisy
property float x_axisz
property float y_axisx
property float y_axisy
property float y_axisz
property float z_axisx
property float z_axisy
property float z_axisz
property float focal
property float scalex
property float scaley
property float centerx
property float centery
property int viewportx
property int viewporty
property float k1
property float k2
end_header
11.373949 -0.89731395 6.8684802
11.486922 -0.8800354 6.8692603
11.715942 -0.85158968 6.8988514
11.906642 -0.81965232 6.9171553
12.161112 -0.8589505 6.8681641
12.295753 -0.92288208 6.830327
12.447841 -0.89027822 6.8777289
12.714476 -0.84683681 6.8935986
12.880002 -0.8270207 6.8165193
13.024673 -0.91257769 6.8338771
13.291327 -0.86860299 6.8641648
13.546335 -0.82051659 6.8628688
13.697087 -0.87754911 6.8805809
13.862929 -0.87802637 6.848772
14.12321 -0.83695239 6.8441353
14.395981 -0.9183265 6.8058352
14.636224 -0.81980383 6.824234
14.862609 -0.8621763 6.8323817
15.143074 -0.80479145 6.8062282
15.3236 -0.84680581 6.8369207
-15.441207 -0.76485664 6.894146
-15.284444 -0.75764292 6.9353499
-13.665023 -0.68057811 6.877378
-13.471907 -0.65391195 6.9558458
-13.298645 -0.62669837 6.9053864
-1.9848241 -0.60409606 6.8310518
-1.607573 -0.66705894 6.8552494
-1.4412889 -0.69370061 6.8194404
-1.3867583 -0.72336751 6.8370938
-1.1468439 -0.67863327 6.8583307
-0.89182818 -0.71991527 6.8604198
-0.79766047 -0.7172389 6.8901749
-0.38577157 -0.75413644 6.8291025
-0.15055229 -0.68601859 6.9099512
0.027763605 -0.69243002 6.9478807
0.46801215 -0.72006059 6.8812399
0.91974676 -0.73797476 6.9244547
1.1400476 -0.68912959 6.9243159
1.2786341 -0.72544402 6.9446363
1.5308297 -0.66449583 6.8666639
1.6978248 -0.73496979 6.8878741
1.8674946 -0.67592216 6.9847364
2.0981264 -0.61014295 6.8900728
2.3592567 -0.67600977 6.9002151
2.4975719 -0.65711826 6.8371229
2.6931684 -0.67024374 6.8834553
3.1250908 -0.69680089 6.8368087
3.5454507 -0.6665163 6.934166
3.7143219 -0.66988522 6.8929005
3.8187001 -0.75120628 6.9225159
4.0756068 -0.73541927 6.9303837
4.2428651 -0.66052675 6.8641157
4.5679798 -0.75876641 6.9394369
4.7693501 -0.64080924 6.8675613
4.8401885 -0.73377711 6.9073906
5.3388672 -0.67016721 6.889267
5.4456987 -0.69037449 6.9021244
5.6283283 -0.68715531 6.9588013
5.900568 -0.66135472 6.8487558
6.0735769 -0.71190298 6.9608126
6.3068047 -0.64961612 6.8303947
6.470479 -0.65551603 6.8778791
6.6774654 -0.68053269 6.8693552
6.9111443 -0.65746927 6.8893156
7.0985384 -0.63529408 6.886538
7.3862376 -0.66571307 6.8388262
7.5180807 -0.70431662 6.8884964
7.6432643 -0.61548376 6.9830608
7.9397483 -0.67387581 6.8289948
8.1167078 -0.65809381 6.8608313
8.2812414 -0.70918769 6.9314175
8.4774332 -0.63809842 6.833292
8.6396713 -0.60843825 6.8262854
8.8970385 -0.75032067 6.9164214
9.1462126 -0.61736107 6.8578444
9.3826895 -0.66519296 6.9350743
9.4873877 -0.67751038 6.9111433
9.6774969 -0.64632094 6.8491402
9.9052372 -0.69713414 6.8402362
10.098101 -0.69282502 6.8981357
10.283726 -0.71656585 6.8348694
10.484283 -0.71395302 6.8794785
10.691458 -0.66261166 6.8621573
10.922999 -0.6988315 6.8570952
11.024714 -0.68970251 6.8610401
11.258822 -0.64837724 6.8563261
11.487866 -0.70651549 6.8460441
11.746733 -0.68170798 6.9109287
11.910583 -0.68804759 6.9171495
12.128603 -0.61151373 6.9672375
12.293335 -0.70326585 6.873661
12.511541 -0.70913345 6.8901281
12.749778 -0.73021394 6.9963551
12.852935 -0.69222504 6.8824553
13.118406 -0.71988523 6.9433432
13.358617 -0.61873716 6.894495
13.482646 -0.7079947 6.907865
13.658883 -0.6732583 6.9190202
13.892361 -0.65040016 6.8633146
14.01554 -0.77593446 6.8859386
14.239197 -0.74491203 6.9513464
14.517039 -0.63534158 6.8891983
14.755202 -0.66649127 6.9941182
14.907928 -0.68410653 6.8999333
15.065199 -0.68928015 6.8886495
15.266981 -0.71862912 6.8122196
15.491518 -0.71726215 6.9089575
15.692288 -0.68660003 6.8762622
15.985552 -0.65240479 6.82125
16.069096 -0.63341463 6.9038343
-15.714134 -0.49044719 6.913619
-15.470285 -0.45434669 6.9261885
-13.703762 -0.55338585 6.9163742
-13.466604 -0.49408007 6.926156
-13.29407 -0.41668925 6.9400463
-12.955276 -0.54018939 6.8505936
-2.076942 -0.49779028 6.8530426
-1.9581786 -0.53566647 6.8837624
-1.4329038 -0.53500944 6.8997784
-1.3728433 -0.51539594 6.9177351
-1.042902 -0.4209083 6.9116392
-0.70183098 -0.49193865 6.9334159
-0.53837276 -0.43714535 6.8272314
-0.08370664 -0.50807685 6.9134369
0.0023993254 -0.50161844 6.8289404
0.53316283 -0.49829838 6.8949265
0.90015948 -0.42700845 6.8796682
1.0685891 -0.49527332 6.8618073
1.211132 -0.49454051 6.9756489
1.5450373 -0.48569906 6.8546925
1.6748314 -0.54998243 6.8822522
1.9679098 -0.57768357 6.8638158
2.1268294 -0.51847595 6.836977
2.3449073 -0.50827521 6.9653068
2.6653042 -0.50265545 6.8462501
2.9206972 -0.57201672 6.9516087
3.1492374 -0.48668358 6.879756
3.226366 -0.54079318 6.849052
3.5506344 -0.50713074 6.9518547
3.7239714 -0.49363196 6.8682241
4.126915 -0.54847085 6.890563
4.2663422 -0.49184108 6.8753848
4.7262859 -0.46929559 6.8795767
4.8613706 -0.59765768 6.8265533
5.1761394 -0.50993741 6.8936028
5.309175 -0.49975383 6.8940239
5.4659772 -0.42781729 6.9664307
5.6966696 -0.59299773 6.8712044
5.8529224 -0.52971351 6.8941998
6.014832 -0.52586704 6.9767685
6.3654108 -0.53595161 6.8909979
6.4829149 -0.46768326 6.962347
6.9092994 -0.52257055 6.8722115
7.4466753 -0.48599529 6.878798
7.7198682 -0.59650707 6.9557824
7.9446597 -0.46483293 6.8607268
8.0875378 -0.48032796 6.9665494
8.3212776 -0.49749732 6.9525218
8.5025215 -0.47328034 6.8790107
8.6816959 -0.55678868 6.9456911
8.9032173 -0.4883914 6.9406977
9.0528374 -0.48603642 6.872148
9.3033409 -0.53355658 6.9147367
9.530242 -0.46560717 6.8592253
9.6472683 -0.51724899 6.9519773
9.9902525 -0.5226627 6.9000578
10.133715 -0.50860882 6.899766
10.498878 -0.56533456 6.9250059
10.64126 -0.48378158 6.8725033
10.852261 -0.50925702 6.987608
11.125939 -0.50660443 6.867559
11.320448 -0.54497433 6.9571905
11.566886 -0.48547354 6.8694677
11.671518 -0.46682388 6.9017291
11.892181 -0.50060964 6.9331832
12.199133 -0.52145445 6.8180046
12.223301 -0.46125633 6.8984451
12.460331 -0.52448142 6.8904901
12.739353 -0.46490434 6.8936605
12.960743 -0.59881544 6.8265247
13.184511 -0.49630952 6.9773631
13.287167 -0.46022987 6.8970823
13.507034 -0.52463239 6.868289
13.741341 -0.5301795 6.9103904
13.897418 -0.50130969 6.9030247
14.046708 -0.57184029 6.8271952
14.281345 -0.48976111 6.9265728
14.477997 -0.494856 6.88376
14.716166 -0.49877849 6.957962
14.867969 -0.41430196 6.8992119
15.153393 -0.47051293 6.8885994
15.328166 -0.50058615 6.9198775
15.568634 -0.4968043 6.8073311
15.657356 -0.54319376 6.8937135
15.843459 -0.47671586 6.904973
16.09936 -0.51250231 6.8649969
16.257219 -0.46400675 6.8883491
16.459436 -0.49998587 6.8767195
16.698381 -0.43550354 6.8146458
-15.49322 -0.32197422 6.9599962
-13.631076 -0.28944826 6.8746405
-13.505987 -0.31836903 6.8272505
-13.271088 -0.34171328 6.8034329
-13.011248 -0.29234666 6.9980922
-12.912517 -0.36565736 6.9078522
-2.0295029 -0.24974608 6.8967805
-1.7429729 -0.30255547 6.8425245
-1.3538334 -0.31087455 6.9472055
-1.138036 -0.3315298 6.8602476
-0.63264412 -0.29551011 6.9218655
-0.53837585 -0.29642433 6.8068323
-0.070825063 -0.29449388 6.8955469
0.36206928 -0.31065166 6.9170718
0.49899468 -0.30786684 6.8946772
1.1002735 -0.31994161 6.9205217
1.2253544 -0.20811981 6.9924116
1.5544201 -0.29716563 6.88416
1.7947714 -0.30417484 6.9925733
1.8703661 -0.29277483 6.8005614
2.1291041 -0.34075531 6.8673525
2.441031 -0.35998595 6.9713345
2.6680884 -0.28542387 6.8239894
3.2024338 -0.28481388 6.8249407
3.5992515 -0.2309759 6.9330549
3.7145677 -0.28455967 6.9130974
4.1622448 -0.32139474 6.9558258
4.2795901 -0.30084124 6.9118171
4.7673864 -0.29799068 6.9931149
4.827405 -0.30589721 6.9095583
5.2784367 -0.28738487 6.8548355
5.7665544 -0.28727019 6.8055191
5.8742156 -0.28359246 6.8268456
6.080368 -0.26782918 6.9797735
6.4085569 -0.28338802 6.8271646
6.9428892 -0.28318411 6.8274827
7.118187 -0.37577906 6.9875903
7.2641792 -0.26786488 6.9642119
7.5358706 -0.31156009 6.9107652
7.6102161 -0.24495173 6.9890347
7.8919821 -0.29633683 6.9305983
8.0115433 -0.28277701 6.8281174
8.4721022 -0.3109149 6.902997
8.9385414 -0.29114711 6.9313712
9.0473194 -0.26405644 6.8709064
9.5338154 -0.29757667 6.9427204
9.7122993 -0.3060571 6.8690314
9.9727039 -0.28783214 6.9203649
10.091856 -0.32535744 6.8984766
10.310038 -0.28691375 6.9891853
10.476717 -0.28691125 6.9217992
10.683324 -0.28257298 6.8284359
10.928556 -0.25695434 6.9368124
11.217624 -0.28237033 6.8287516
11.471502 -0.30482668 6.9212332
11.710451 -0.27013782 6.9055457
11.974649 -0.28370112 6.9217157
12.058115 -0.34266692 6.9017706
12.286574 -0.28298044 6.8278003
12.501629 -0.30307525 6.922502
12.908577 -0.28207189 6.9281211
13.04792 -0.31331727 6.9166346
13.355322 -0.28298116 6.8277988
13.443868 -0.36743563 6.9141765
13.777891 -0.26625472 6.8058486
13.910984 -0.33644375 6.8670282
14.278901 -0.34045503 6.9768181
14.510726 -0.30803472 6.9095278
14.933202 -0.33496538 6.8730698
15.033581 -0.33017284 6.8935213
15.341702 -0.27773786 6.9620414
15.472607 -0.39325815 6.8291678
15.692245 -0.36296517 6.9388952
15.866957 -0.29265171 6.9288359
16.306479 -0.3013888 6.890564
16.491856 -0.36597022 6.8832059
-15.683936 -0.080930814 6.8944812
-15.472466 -0.028532015 6.9256611
-13.281104 -0.12259357 6.8895321
-13.181963 -0.028532015 6.9614844
-12.945971 -0.075253211 6.8248372
-10.038428 -0.028532015 6.8102345
-9.901371 -0.082946017 6.8179598
-2.029247 -0.055426314 6.9122806
-1.8039476 -0.077063859 6.9960036
-1.7408569 -0.035667509 6.8679056
-1.31873 -0.10527228 6.9369555
-1.1027694 -0.094011232 6.8530669
-0.71601313 -0.063129157 6.9424782
-0.53837264 -0.058237694 6.8363895
-0.025910771 -0.044681702 6.9185476
0.52455747 -0.056609251 6.846777
1.0504975 -0.10102886 6.8708
1.5869999 -0.075409815 6.8718386
1.9888799 -0.19249403 6.8886604
2.1269536 -0.075060971 6.8985047
2.4723499 -0.10572722 6.9096856
2.661772 -0.096863918 6.8929257
2.9816256 -0.089360416 6.8141518
3.1264384 -0.085751742 6.9075599
3.210252 -0.16196075 6.9355955
3.722858 -0.077089772 6.8758211
4.2545276 -0.069170401 6.8761396
4.7759914 -0.056103759 6.8502436
4.8388233 -0.037484076 6.9626532
5.3384671 -0.077950574 6.9228544
5.7440453 -0.17583388 6.8906446
5.8651652 -0.050183177 6.9146414
6.0542979 -0.15639782 6.9915318
6.3389955 -0.065243438 6.8880701
6.4039187 -0.035697907 6.9349127
6.7916265 -0.13926083 6.9355626
6.9072986 -0.076751933 6.8797913
7.4316902 -0.1001775 6.8953748
7.7789087 -0.056991279 6.9931073
7.953578 -0.079261288 6.8793325
8.1600437 -0.13942122 6.9919686
8.4787197 -0.08681719 6.8790674
8.6531525 -0.031806283 6.9972448
8.9544115 -0.17097935 6.9344916
9.0640726 -0.046875715 6.900156
9.5074301 -0.12753974 6.8883681
9.6674728 -0.028532013 6.9983234
9.9429903 -0.050199062 6.9154205
10.101244 -0.059270285 6.9043427
10.318438 -0.1729576 6.8120556
10.524178 -0.082841076 6.9474354
10.67451 -0.083550617 6.9196243
10.875186 -0.10565838 6.9019957
11.115615 -0.076998957 6.8820257
11.296278 -0.036228172 6.9939198
11.539854 -0.1896089 6.9421725
11.703159 -0.046838455 6.899137
11.912585 -0.088119805 6.9782438
12.183426 -0.014653981 6.9897094
12.226291 -0.046838455 6.8989344
12.747879 -0.046838455 6.8988571
12.989552 -0.15704018 6.9804115
13.057261 -0.14671135 6.8911662
13.265291 -0.075430393 6.919857
13.508654 -0.12172139 6.9307175
13.769243 -0.028532013 6.92377
13.892482 -0.10293849 6.9173026
14.064528 -0.13195674 6.9406042
14.338205 -0.080398239 6.8957596
14.506034 -0.073502272 6.9212046
14.708271 -0.028532013 6.9800148
14.870969 -0.10477998 6.9046416
15.130079 -0.10477491 6.9450283
15.434887 -0.10133098 6.8493757
15.724325 -0.096472465 6.9661694
15.89379 -0.10205826 6.9199781
16.129284 -0.044308029 6.9464369
16.325418 -0.087140381 6.9066572
16.503635 -0.084333085 6.9087095
-15.669106 0.046512485 6.9425902
-15.506485 0.1775893 6.9642324
-13.631142 0.15517247 6.9313889
-13.312591 0.091110989 6.8428144
-13.051856 0.18722671 6.9996338
-12.955077 0.0166924 6.818202
-9.8834352 0.030271918 6.8200693
-2.3205111 0.045493215 6.8108735
-2.0159371 0.17019656 6.9161072
-1.8255565 0.10037595 6.9240913
-1.7085347 0.094732642 6.8886719
-1.3363349 0.077635206 6.9558401
-1.1382439 0.10525754 6.8738875
-0.66384304 0.12840414 6.9365597
-0.5383715 0.024142057 6.852354
-0.32498321 0.014899015 6.8057966
-0.11613327 0.054022949 6.903636
0.22411489 0.12006128 6.8093753
0.54988194 0.12816338 6.955658
1.0502452 0.10602707 6.9151893
1.5574625 0.10422128 6.9205146
1.8835562 0.093934342 6.9725571
2.1267989 0.076052748 6.9011383
2.6649826 0.055094667 6.9076843
3.0945544 0.06932234 6.9147124
3.2087469 0.0972187 6.9285383
3.5778918 0.079920426 6.9018679
3.7212503 0.1213388 6.9162979
4.1446857 0.16206017 6.9035816
4.2590308 0.076379254 6.9295897
4.7782469 0.01987952 6.8658862
4.8119755 0.1316098 6.9179258
5.3059502 0.12726605 6.9039536
5.4543982 0.18727672 6.9820142
5.7477098 0.071963549 6.9377041
5.8646483 0.083732776 6.8945632
6.3731518 0.019654006 6.8666019
6.4898958 0.1284911 6.94593
6.7059259 0.065574586 6.9432755
6.9156322 0.071116246 6.8966799
7.040792 0.17979872 6.9916482
7.308032 0.14412636 6.8910179
7.4493113 0.082141392 6.8798981
7.951313 0.091309875 6.9038234
8.0345154 0.17270246 6.8406353
8.3262997 0.18016163 6.9879746
8.4939642 0.10304351 6.8879395
8.9368258 0.14035097 6.9303579
9.0406837 0.13053709 6.8930483
9.2406778 0.066457391 6.9927621
9.4884043 0.069563083 6.9334273
9.6889982 0.18289673 6.9287386
9.967123 0.15753303 6.9254785
10.090139 0.081131682 6.8943338
10.460983 0.11630651 6.9089851
10.650633 0.10950466 6.8680038
10.95723 0.15502682 6.8903756
11.096321 0.064713016 6.9244146
11.208831 0.19926232 6.8693709
11.517556 0.08253172 6.8664904
11.716289 0.10960606 6.8678465
11.875165 0.055521786 6.9898868
12.0641 0.1751605 6.8637824
12.293159 0.12415779 6.9074001
12.516113 0.16722226 6.9335012
12.753018 0.019654363 6.866601
12.890848 0.17907736 6.9011278
13.073853 0.12048359 6.9499354
13.31472 0.10956015 6.8678274
13.513744 0.11262218 6.9389524
13.753252 0.072300762 6.9841762
13.883243 0.066410668 6.8992357
14.05267 0.0399611 6.916996
14.371572 0.032106966 6.9211035
14.490138 0.12361621 6.9042535
14.892627 0.076808646 6.9110479
15.106766 0.039186537 6.9465203
15.315187 0.1219918 6.974812
15.443896 0.061229892 6.8634009
15.776501 0.066413194 6.9868183
15.883331 0.13242517 6.9079614
16.318756 0.12050926 6.909019
16.454044 0.044864967 6.9294524
-15.498843 0.3486501 6.9223804
-13.63055 0.2300868 6.8992624
-13.481467 0.27811903 6.8574657
-13.326107 0.34540993 6.9194489
-13.000922 0.30982643 6.9232593
-12.918065 0.32914698 6.8611221
-2.0572324 0.32520026 6.8664126
-1.674521 0.2790235 6.8281956
-1.359457 0.33243266 6.9528446
-1.1214468 0.25267303 6.8655887
-0.63085037 0.29353502 6.9228263
-0.53837341 0.29352617 6.8288155
-0.04030342 0.25757042 6.8901935
0.0023479462 0.39947343 6.8429556
0.35532278 0.2197887 6.8827829
0.51228642 0.28678507 6.8794799
0.77768636 0.23343176 6.8052182
0.90302169 0.32100618 6.8951969
1.0776377 0.28914893 6.9010773
1.5898025 0.28566706 6.8650694
1.7057188 0.34389964 6.9196672
2.1350217 0.31387043 6.8626223
2.3057396 0.33617312 6.9537663
2.4492054 0.28809392 6.982233
2.6711116 0.3190341 6.8625121
3.1938953 0.30819061 6.8635154
3.2448211 0.37162876 6.8588262
3.7534339 0.35097739 6.8691788
4.1234503 0.2358616 6.8879604
4.276701 0.2999624 6.8950005
4.710875 0.30266827 6.8827524
4.8333287 0.34631631 6.8823109
5.3207121 0.3764697 6.8960161
5.4274979 0.30194175 6.9246721
5.8942699 0.3545388 6.8407297
6.3737154 0.34354317 6.820013
6.4867721 0.36526167 6.8624554
6.641036 0.20229799 6.9814067
6.9054136 0.34354353 6.820014
7.101531 0.34194058 6.9196939
7.5317645 0.32987094 6.8890738
7.762989 0.2590999 6.9658008
7.9068031 0.30588397 6.9067116
8.1197615 0.37074357 6.917408
8.3573704 0.36131525 6.9376893
8.4662313 0.30039901 6.9038634
8.6482697 0.31410205 6.8346224
8.9406958 0.33613411 6.9438462
9.1105652 0.3549065 6.84095
9.2587328 0.3999896 6.9842396
9.5069914 0.35308218 6.8794546
9.763546 0.32787392 6.9300513
9.9825563 0.28280222 6.9534521
10.105795 0.29325271 6.8989406
10.282562 0.31499004 6.9229689
10.483981 0.27557915 6.9290285
10.627306 0.34354329 6.8200135
10.894949 0.29465586 6.9222808
11.159005 0.3435443 6.820015
11.298792 0.31051326 6.9187441
11.510085 0.29721037 6.9153552
11.646138 0.3443498 6.8948364
11.940671 0.3128216 6.9143152
12.068172 0.28851509 6.9303837
12.293628 0.30454952 6.8964353
12.483316 0.28432447 6.9256797
12.711523 0.27851519 6.8694572
12.936069 0.30196863 6.9204359
13.021764 0.32519227 6.9024119
13.330602 0.3425726 6.894547
13.484456 0.33661163 6.9092193
13.87633 0.29126704 6.8643661
14.055938 0.37934411 6.8544288
14.271529 0.30150867 6.9121819
14.464132 0.27641326 6.9070582
14.920698 0.29551941 6.9004035
15.115494 0.2927708 6.9258146
15.366821 0.27989507 6.9350228
15.513136 0.27027637 6.8232574
15.680217 0.30968553 6.8795128
15.856391 0.31943151 6.9563193
16.096397 0.30246127 6.8253937
16.292007 0.32004261 6.900157
16.48584 0.34540325 6.8860593
16.711338 0.37832677 6.8111691
-15.703005 0.4507626 6.9226265
-15.425201 0.40248105 6.9629188
-13.62516 0.50413167 6.8533106
-13.427951 0.5659343 6.910162
-13.373523 0.55785513 6.8456411
-12.953718 0.55679947 6.8263531
-2.087594 0.54873902 6.8291626
-1.4012767 0.50789857 6.8915653
-1.3878813 0.42086336 6.8955817
-1.1897645 0.4693028 6.8585224
-0.82137942 0.5255897 6.8763123
-0.73230219 0.4631049 6.9343452
-0.53837168 0.43003368 6.8255377
-0.097058013 0.51687056 6.9298067
0.0027236342 0.40513027 6.8299203
0.36001953 0.46652746 6.8848052
0.53921378 0.44940072 6.9214282
0.60226399 0.40287298 6.9988594
1.1036843 0.48158672 6.8776798
1.2029508 0.42582566 6.9624934
1.5434172 0.45806509 6.8361211
1.6806362 0.48723188 6.8920631
1.964102 0.49750617 6.840199
2.1263349 0.49427876 6.8247042
2.3689404 0.47384101 6.952354
2.4947903 0.58188713 6.8185163
2.6636207 0.51212007 6.836544
2.9657066 0.50666976 6.9570684
3.1299701 0.48929822 6.8540015
3.2319534 0.46499717 6.8730302
3.520344 0.46957594 6.949965
3.6813266 0.48038691 6.8917303
4.1360035 0.45445374 6.9365401
4.2674465 0.49870044 6.845037
4.7471509 0.48798609 6.88063
4.8199387 0.55092406 6.8916364
5.1735249 0.42452025 6.8646946
5.3040195 0.48759747 6.8760514
5.4014153 0.53982401 6.8265729
5.6947789 0.51252574 6.8472824
5.8789949 0.49987984 6.8950257
6.0064993 0.45436034 6.9604478
6.3499956 0.50624943 6.8689575
6.4589553 0.52617979 6.9083343
6.6541634 0.50043565 6.9845181
6.9085674 0.49877205 6.878552
7.0941105 0.55747867 6.8751969
7.3818169 0.54672229 6.880064
7.4679146 0.46934673 6.8757033
7.6831346 0.54427564 6.9680548
7.9290342 0.48643258 6.8523865
8.0727863 0.51011986 6.8962536
8.3284292 0.57291174 6.9212103
8.4972916 0.50674593 6.8643923
8.6729279 0.51247734 6.9175138
8.8497066 0.4324891 6.8637657
9.1070871 0.50914103 6.871316
9.3680639 0.5582906 6.8843713
9.5189924 0.52634495 6.878231
9.6860609 0.50630039 6.8955331
9.9889069 0.45843089 6.8862219
10.108585 0.47765571 6.8816218
10.259452 0.55060625 6.8263049
10.522365 0.51828289 6.9059916
10.667036 0.51211286 6.8669991
10.939271 0.56283331 6.9251299
11.113715 0.47674456 6.8848443
11.314167 0.50981468 6.9360957
11.702099 0.50300729 6.8760471
11.888407 0.56082046 6.912487
12.125907 0.54862332 6.9605699
12.216164 0.47153944 6.8638682
12.440653 0.49502569 6.8439312
12.73772 0.47075397 6.8631339
12.960104 0.53558064 6.8346586
13.162507 0.5066821 6.9652433
13.28844 0.49299169 6.8915572
13.500459 0.54290485 6.8264961
13.714676 0.49836522 6.9297533
13.892158 0.49748716 6.912612
14.041621 0.5375123 6.8266301
14.296501 0.46796092 6.8978677
14.530367 0.51024991 6.8961406
14.700134 0.48443472 6.9237003
14.904605 0.58279067 6.8475895
15.117007 0.49429172 6.8923488
15.323393 0.47835153 6.9387608
15.503462 0.52499485 6.8769827
15.677439 0.53105158 6.900373
15.854599 0.44808453 6.8856316
16.101088 0.44617128 6.8637829
16.24921 0.46167755 6.8843288
16.469162 0.45352077 6.8800483
-15.432619 0.73981243 6.9127493
-13.900895 0.64368033 6.889987
-13.713904 0.67521894 6.8993692
-13.491411 0.63873607 6.9323869
-13.168635 0.61737829 6.9516344
-1.4392776 0.67097604 6.8316131
-1.3471692 0.67514086 6.863018
-1.0995116 0.63067907 6.9013534
-0.86691201 0.72042382 6.8463387
-0.68525612 0.7367419 6.8804483
-0.32184452 0.70947331 6.8881965
-0.1626454 0.68854463 6.9329767
0.019830573 0.69676888 6.9373531
0.44090414 0.70158142 6.8708992
0.76231408 0.72953391 6.9326267
0.95933354 0.63163382 6.9692488
1.0972583 0.70634228 6.8545542
1.299021 0.69507545 6.9720306
1.521455 0.69429672 6.8736882
1.7012576 0.72449559 6.8549652
1.8464173 0.61043084 6.9662294
2.1167855 0.64377737 6.8437176
2.329298 0.71788442 6.8931561
2.5379844 0.79440355 6.9343119
2.7338586 0.65819383 6.9450011
2.8643157 0.77802801 6.8198714
3.1418972 0.65701288 6.8775649
3.5576179 0.63219488 6.9298148
3.7392707 0.67063713 6.8812017
4.0786467 0.72736949 6.9238052
4.2254195 0.67428672 6.9620438
4.5780816 0.70877206 6.9488134
4.6954942 0.77728027 6.8589606
4.8966365 0.70257556 6.9397306
5.3455181 0.72158659 6.8674011
5.5146255 0.73704106 6.9873004
5.653511 0.62363327 6.9854269
5.8921862 0.64868116 6.8764839
6.0447278 0.72050333 6.9457855
6.546298 0.64970446 6.9093652
6.7305298 0.67713821 6.8020287
6.9116859 0.68158817 6.8750067
7.0668421 0.70509166 6.8648911
7.3987308 0.64962029 6.8376665
7.5099955 0.75486624 6.9188795
7.7003822 0.72803473 6.9581628
7.9103727 0.71051633 6.8178883
8.1522665 0.63179064 6.9342456
8.2484627 0.7249037 6.9000483
8.9045963 0.70034385 6.9315071
9.3367453 0.7676394 6.9630709
9.5157986 0.68619269 6.8948531
9.7130966 0.65053999 6.9094367
9.8969212 0.67632478 6.8403969
10.077991 0.72585714 6.9136305
10.278326 0.7100926 6.875319
10.521013 0.71325779 6.8901367
10.643668 0.78743041 6.9123702
10.931582 0.66234231 6.8879662
11.375867 0.70151943 6.9344225
11.487803 0.72483486 6.8659348
11.784189 0.68717158 6.9938693
11.917084 0.74458617 6.8937225
12.128493 0.74604714 6.9314899
12.311357 0.63052124 6.9127293
12.532825 0.69233823 6.9152889
12.729964 0.77150661 6.9229279
12.8656 0.69747514 6.9155025
13.072555 0.7186476 6.9260521
13.268996 0.74537194 6.9124861
13.497474 0.68212742 6.9015946
13.645067 0.71550888 6.8875384
13.926929 0.69555962 6.8710852
14.129474 0.69545358 6.8777843
14.266722 0.70929289 6.9495544
14.449756 0.61042535 6.8454313
14.674726 0.67022336 6.8655338
14.93198 0.71155488 6.9150705
15.102812 0.68815964 6.8524675
15.241442 0.7264663 6.8541312
15.515044 0.73058879 6.882638
15.730956 0.68152493 6.8623242
16.110882 0.61147714 6.9020457
-0.28341621 0.80493188 6.8190336
-0.085473493 0.82712632 6.8186941
0.28500664 0.83117348 6.8142805
0.63511431 0.85572702 6.806673
0.88576907 0.83432972 6.8319063
1.4091282 0.87343144 6.8051033
1.9654672 0.89096105 6.8006401
2.2153473 0.84673691 6.8764439
2.547915 0.80307847 6.8936534
2.6716738 0.86860156 6.8478727
3.0497589 0.86580914 6.8588419
3.7090063 0.86704659 6.8705096
4.1445823 0.81404185 6.850636
4.4569483 0.94710958 6.818399
4.6169066 0.88725454 6.848525
4.9494133 0.86599171 6.8950682
5.1000853 0.89789551 6.8567705
5.2728529 0.83890879 6.8091116
5.5505848 0.81166232 6.8929534
5.8415747 0.85723591 6.8984137
6.1294003 0.86552453 6.8879099
6.4882426 0.91017568 6.830863
6.6726465 0.90789491 6.8446503
7.0779834 0.87037516 6.8773766
7.5336099 0.90954316 6.8455434
7.7293673 0.85247219 6.8491564
7.8185587 0.90786541 6.8856354
8.0780277 0.87226963 6.8638206
8.3309364 0.85140252 6.8823018
8.430027 0.9201653 6.8459926
8.8895683 0.84453702 6.8698592
9.0598259 0.88590282 6.8652458
9.3422356 0.88157529 6.8251801
9.5932388 0.85512877 6.9283853
9.7115765 0.90633774 6.8626771
9.9199924 0.82349873 6.8539104
10.075589 0.86211371 6.8742275
10.318499 0.83750385 6.9078584
10.68711 0.88051331 6.8217039
10.85454 0.85254937 6.903831
11.11388 0.85498613 6.8545184
11.352001 0.90181053 6.8457646
11.521848 0.89763159 6.8590431
11.616179 0.87499207 6.8766942
11.952475 0.92667687 6.8004174
12.363251 0.87130666 6.8416414
12.508407 0.87856036 6.8887663
12.6413 0.88854259 6.865674
13.135069 0.89460528 6.8416634
13.275932 0.89335811 6.846446
13.737798 0.84334844 6.8888454
14.062986 0.86265719 6.8431034
14.425126 0.86404246 6.8294444
14.703389 0.85097998 6.805388
14.937843 0.83177567 6.857017
15.081795 0.82666135 6.8177037
15.338836 0.81395519 6.8412108
-15.479928 -0.70844555 7.1643276
-15.286116 -0.73889202 7.0869989
-15.196009 -0.74827141 7.1769428
-13.914372 -0.663737 7.1300092
-13.682188 -0.62680238 7.0629878
-13.547694 -0.6001938 7.0451374
-13.333924 -0.6290229 7.1318779
1.6775148 -0.6597414 7.0201039
2.7608092 -0.66360825 7.0001163
3.0160277 -0.62352455 7.0239339
3.6365223 -0.64775944 7.0129838
4.2538261 -0.65646642 7.0370865
4.5385046 -0.62606966 7.0368481
4.9837937 -0.62646544 7.0478554
5.5027847 -0.6924665 7.042387
6.9965658 -0.73954391 7.0076833
8.1800718 -0.69681466 7.0002689
8.2201872 -0.7042731 7.0152588
10.042103 -0.69418555 7.0261416
10.722413 -0.60858965 7.0343585
11.09729 -0.60660291 7.0453553
11.948063 -0.67941129 7.0199714
14.06418 -0.66920656 7.0043197
-15.614981 -0.44726568 7.1068726
-15.51645 -0.46577445 7.1170225
-15.344351 -0.49378586 7.1745729
-13.818413 -0.56820887 7.074296
-13.730971 -0.47456715 7.115386
-13.322628 -0.52866983 7.0730934
-13.142708 -0.55197543 7.0913401
-0.9091419 -0.46090823 7.0111475
-0.52213115 -0.50538766 7.0532646
-0.23563334 -0.57005823 7.0426674
-0.051220633 -0.52515519 7.027544
0.38938522 -0.55875641 7.0266461
0.76383686 -0.51020396 7.041584
1.0943198 -0.48120672 7.0385885
1.3740973 -0.42783552 7.0346851
1.5038087 -0.48869222 7.0343175
1.9815863 -0.5487535 7.0655255
2.1018865 -0.50502545 7.0134473
2.3703873 -0.51546711 7.0283647
2.4218118 -0.54439265 7.0361261
2.8867033 -0.50224042 7.057302
3.0869346 -0.51515567 7.0601878
3.3191609 -0.52490282 7.0662174
3.5844126 -0.42111599 7.0290594
3.8688436 -0.53364122 7.0478239
4.3139277 -0.55504429 7.0454884
4.7926044 -0.54194528 7.0775633
5.2693176 -0.55698401 7.0405521
5.4799957 -0.53454781 7.0462155
6.1500731 -0.49983761 7.0577369
6.3578 -0.47189331 7.0242972
6.9090948 -0.55650908 7.0279503
7.0588212 -0.52591902 7.0373778
7.2952204 -0.5360387 7.0465555
7.7459755 -0.46404713 7.0229292
7.8987532 -0.54837298 7.0478258
8.0739965 -0.54399693 7.0719709
8.2349577 -0.57559633 7.0091019
8.5671892 -0.50040889 7.0514526
8.7225361 -0.49765182 7.0544872
9.2639122 -0.50463951 7.04706
9.5500937 -0.54117745 7.0213985
9.6309071 -0.50437284 7.0376043
10.105686 -0.44276428 7.056633
10.23385 -0.48527202 7.0488997
10.852463 -0.50327897 7.0289907
11.065921 -0.49264106 7.0533748
11.509987 -0.44221193 7.0372124
11.827875 -0.47810936 7.0357809
12.308264 -0.48998237 7.0329103
12.561712 -0.47294739 7.033627
12.768394 -0.49334258 7.0366907
12.948532 -0.5301972 7.0482473
13.073641 -0.49019456 7.037498
13.277472 -0.46791738 7.0304208
13.473919 -0.51596546 7.0182114
13.724615 -0.45713791 7.0287142
13.977015 -0.46300206 7.0271282
14.106105 -0.43111113 7.0367064
14.384327 -0.48270187 7.0232897
14.43196 -0.40818688 7.0782151
14.650923 -0.45830253 7.0157461
15.303275 -0.44333997 7.0161495
16.059624 -0.40162876 7.004807
-15.467279 -0.25641173 7.1840963
-15.337239 -0.33538935 7.1410942
-13.197956 -0.24571168 7.1128745
-0.69719231 -0.20938602 7.0488067
-0.40976438 -0.3413429 7.0835114
-0.37140444 -0.27980313 7.0982141
-0.14584321 -0.28753605 7.0342937
0.0018883497 -0.22366051 7.0755644
0.58452159 -0.24888116 7.0235066
0.64692819 -0.29427865 7.0569324
1.1902421 -0.26907158 7.0052481
1.4865572 -0.35694814 7.1070828
1.6327764 -0.25012657 7.0762749
1.8196894 -0.251546 7.0611763
2.0213552 -0.30074197 7.098825
2.4627934 -0.36552152 7.0051317
3.115474 -0.33377159 7.0311899
3.2014782 -0.27154627 7.0715933
3.6881912 -0.22713453 7.0214682
4.1214943 -0.23527062 7.0639424
4.2843242 -0.29025534 7.0611529
4.4730549 -0.20748892 7.1208253
4.7101493 -0.32170689 7.0546303
5.015666 -0.28183419 7.0479193
5.4660664 -0.31018177 7.0151095
5.7438602 -0.39791411 7.065475
5.8436685 -0.28504851 7.1129441
6.1825376 -0.31389201 7.0533667
6.3632307 -0.28442752 7.0895777
6.5901017 -0.33273047 7.0162492
6.6559711 -0.31956667 7.0167608
7.0479965 -0.24259067 7.0062909
7.5991888 -0.32966307 7.0559015
7.6115661 -0.28396121 7.0456247
7.8342791 -0.26658812 7.0393238
8.3455172 -0.27303916 7.0528522
8.433403 -0.32931146 7.0924344
8.6279526 -0.23481959 7.061522
8.9852295 -0.29687199 7.0385294
9.1638117 -0.34026885 7.1047726
9.228096 -0.30789936 7.1046815
9.4007349 -0.27029759 7.0574021
9.6888542 -0.29761133 7.017024
9.9947844 -0.34247598 7.0031052
10.143669 -0.33029562 7.0307589
10.277428 -0.29133162 7.0723338
10.908757 -0.34764743 7.0446677
11.103531 -0.20824739 7.0151434
11.255713 -0.36560223 7.0072198
11.592999 -0.38312089 7.0503292
11.646172 -0.38706732 7.0375161
11.96521 -0.25668487 7.056365
12.028158 -0.3058033 7.063066
12.362764 -0.31600374 7.0223269
12.599836 -0.26845634 7.0354509
12.652609 -0.27136368 7.0197701
12.835426 -0.39709187 7.0348654
13.098734 -0.34360337 7.03265
13.475822 -0.38537017 7.0011697
13.682264 -0.27148354 7.0659919
14.023474 -0.37485701 7.0843573
14.230547 -0.31201148 7.0697789
14.455845 -0.26706797 7.0638504
15.174618 -0.27568769 7.0403609
15.762528 -0.39571437 7.0238376
15.846569 -0.33335125 7.0130057
-15.515605 -0.057880379 7.1322641
-15.338171 -0.092087857 7.1708999
-13.657333 -0.11423993 7.028903
-13.521009 -0.029120684 7.1544943
-13.335464 -0.055832367 7.0575609
-13.177846 -0.078965634 7.0647907
-1.7409924 -0.10518336 7.0315256
-0.9098953 -0.17330661 7.0460358
-0.5443086 -0.028532015 7.0950646
-0.034275509 -0.052170601 7.0426445
0.54856861 -0.073628038 7.0411468
0.85717034 -0.061719459 7.099988
1.1486144 -0.098153763 7.0545216
1.5068321 -0.11103967 7.1029525
1.7670826 -0.028532013 7.0065608
1.8649905 -0.13367808 7.0264282
2.0890172 -0.10039236 7.0815239
2.2910237 -0.028532013 7.0692334
2.4712429 -0.060905389 7.0831628
2.9192138 -0.069164395 7.0575876
3.0831411 -0.044706564 7.0716829
3.4812541 -0.06487897 7.0787601
3.6787205 -0.10294314 7.0629535
3.9750371 -0.036273271 7.0734406
4.1158714 -0.028754961 7.0544119
4.5027361 -0.046051197 7.0851097
4.6621599 -0.033438854 7.0524859
4.8894963 -0.080331028 7.025928
5.3299875 -0.029609136 7.0757174
5.4399047 -0.073535196 7.0674014
5.7129607 -0.0944307 7.0856371
5.8895745 -0.033032946 7.0083904
6.2843275 -0.080286443 7.0705023
6.4510345 -0.084529452 7.0060768
6.6368732 -0.17262083 7.0210781
6.9317064 -0.032640781 7.0449028
7.1179361 -0.084470443 7.0845084
7.3333268 -0.04370467 7.1070776
7.516726 -0.028532013 7.0012012
7.7538147 -0.084335566 7.0391188
7.9417362 -0.028532015 7.0849133
8.061861 -0.028532013 7.0002465
8.2913408 -0.071507797 7.1099606
8.738924 -0.028500415 7.0463448
8.859251 -0.028532015 7.1075115
9.2866936 -0.063508466 7.0628204
9.5204115 -0.073964603 7.0492401
9.6629553 -0.12680581 7.0684357
10.301909 -0.048768919 7.0733924
10.797204 -0.081636548 7.0289688
10.893881 -0.090753369 7.0639992
11.120604 -0.02990157 7.0802965
11.302273 -0.052939698 7.056313
11.440825 -0.12176856 7.044817
11.660351 -0.11270029 7.0687284
11.878031 -0.07327465 7.037591
12.137164 -0.15351018 7.0557137
12.253291 -0.14645714 7.0583458
12.572913 -0.17383605 7.1139836
12.608109 -0.028532015 7.0690942
12.849113 -0.077175252 7.0651245
13.138501 -0.068855241 7.0762544
13.323994 -0.028532015 7.0665884
13.484934 -0.16718361 7.0546446
13.752617 -0.126766 7.0223827
13.885219 -0.038923971 7.0486932
14.058073 -0.087623574 7.0490618
14.285339 -0.028963169 7.0492563
14.452423 -0.030554309 7.0675859
14.684576 -0.10442121 7.0472674
14.87992 -0.09097068 7.0298476
15.022256 -0.014556825 7.0923324
15.320114 -0.10689938 7.0281181
15.785618 -0.13023901 7.0174417
15.911079 -0.10917751 7.0124459
16.169756 -0.01717639 7.0053473
-15.506686 0.14671211 7.1778326
-15.356642 0.16371395 7.1806517
-13.637181 0.017617643 7.0686088
-13.357793 0.01450938 7.0774961
-13.147039 0.066507809 7.0631256
-1.7467333 0.040630639 7.029623
-0.89922631 0.10737001 7.0544801
-0.7140249 0.084854484 7.0320816
0.19527052 0.099714279 7.0760393
0.71067977 0.19177642 7.1001639
0.83538896 0.050363839 7.0864782
1.1040142 0.071058869 7.0787511
1.2473673 0.11916071 7.0278134
1.4889531 0.092600323 7.105618
1.6176338 0.18301301 7.0632319
1.8918283 0.085680924 7.0746074
2.1605597 0.0067956597 7.069572
2.4387522 0.087652519 7.0443144
2.9131992 0.066850774 7.0558739
3.0762734 0.016664684 7.0809898
3.4730835 0.002009213 7.1468992
3.6499031 0.13248762 7.0437832
4.0147009 0.065869391 7.0987473
4.310174 0.17677581 7.0386939
4.4495931 0.13450369 7.111866
4.7827606 0.17576623 7.0115581
4.9036384 0.1429233 7.030345
5.0836849 0.127693 7.094306
5.3597751 0.068105668 7.0138636
5.7184401 0.10147922 7.0595231
5.8642244 0.14627576 7.119535
6.086771 0.097468495 7.0271468
6.3330936 0.024150535 7.0789938
7.1026392 0.027148008 7.0851154
7.2863855 0.10817266 7.0285444
7.6644869 0.13121623 7.028244
7.8735895 0.097603977 7.0918732
8.1687164 0.075027108 7.010416
8.3352509 0.10467783 7.0755253
8.4569044 0.088406026 7.0292363
8.6580744 0.13169116 7.0888081
8.9656038 0.15489268 7.0349512
9.0127058 0.18057001 7.0654211
9.2031193 0.17759645 7.0865698
9.4321651 0.16383499 7.0866442
9.6519127 0.070038497 7.0532885
10.195415 0.19503498 7.0847998
10.280891 0.12229998 7.0628543
10.584199 0.023697555 7.0210309
10.755189 0.054332495 7.0278239
10.901596 0.082118541 7.0488157
11.22917 0.027427226 7.1043096
11.437456 0.063768864 7.0406685
11.661498 0.14818007 7.0381899
11.926161 0.11058366 7.05056
12.089886 0.11327847 7.0736785
12.240773 0.078294009 7.0439882
12.547355 0.079130352 7.1076303
12.61611 0.19244628 7.0405478
12.93814 0.10308691 7.0285225
13.186899 0.11606507 7.0409493
13.268153 0.075106978 7.0160966
13.445924 0.093864545 7.0217891
13.692314 0.10926617 7.0539236
13.853824 0.0086174607 7.0932074
14.10545 0.042755246 7.0382195
14.219839 0.18494388 7.0747728
14.509353 0.1787269 7.0735521
14.661253 0.11248866 7.0280704
14.832032 0.044187076 7.0199633
15.14946 0.13942128 7.0337687
15.273123 0.079713702 7.0440693
15.925735 0.046414956 7.0177011
-15.64161 0.3514598 7.0870638
-15.51635 0.32910359 7.1292677
-15.324748 0.2736958 7.1503057
-13.656111 0.3209646 7.1570549
-1.9412141 0.2214855 7.0190339
-0.97235745 0.37302178 7.0223727
-0.66547221 0.24485338 7.0046649
-0.3699325 0.24882266 7.1007652
-0.093321055 0.27867824 7.0448337
0.62597609 0.29059768 7.0485816
1.1914372 0.28579307 7.0044804
1.297142 0.28708678 7.0340357
1.5164185 0.27596337 7.1178274
1.6208555 0.34508705 7.0660081
2.0386372 0.23906952 7.1074753
2.4810462 0.28029251 7.0169821
2.8768899 0.38885888 7.0734768
3.1882942 0.2054068 7.0598059
3.2038527 0.30815196 7.06812
3.5994914 0.36046267 7.044219
4.1967793 0.28665847 7.0040207
4.2901073 0.24391425 7.0859137
4.7194061 0.24968199 7.0632296
5.0762625 0.23628637 7.084259
5.4888377 0.3311832 7.010128
5.7409325 0.33840877 7.0649123
5.8457971 0.27164501 7.1174378
6.1414146 0.26863521 7.0673494
6.3191977 0.22755091 7.08743
7.0623164 0.28827584 7.0016103
7.2347713 0.22122097 7.0191231
7.589757 0.26534337 7.0464535
7.670423 0.28223613 7.0527334
8.3607006 0.25136089 7.0685577
8.4565945 0.28804946 7.0702782
8.9736137 0.25981653 7.0418539
9.3068876 0.38086182 7.0691471
9.6016359 0.3096619 7.0323267
10.070961 0.31647283 7.0265017
10.272807 0.30732214 7.0602655
10.411065 0.35663253 7.1042914
10.894183 0.2803877 7.0624638
11.125037 0.36681342 7.0648937
11.533998 0.32388824 7.0351157
11.684955 0.26370049 7.076695
11.991776 0.21961224 7.0780935
12.017614 0.28397712 7.0570912
12.294199 0.33285958 7.0426931
12.504859 0.25621188 7.0516548
12.765869 0.36014625 7.0255122
12.827991 0.33337361 7.0261755
13.108564 0.2901412 7.0461273
13.20044 0.21014565 7.1058269
13.512897 0.35812366 7.0380464
13.706958 0.26008508 7.0449901
13.833103 0.38063061 7.0546532
14.078445 0.33564299 7.0479083
14.328148 0.29237229 7.0411119
14.424795 0.3399711 7.0763178
14.704105 0.33776462 7.0248823
14.833985 0.35188913 7.0031233
15.179121 0.32164696 7.0365124
15.279213 0.33521676 7.0220366
15.749561 0.28122681 7.0095344
15.860315 0.28145483 7.0154724
16.116127 0.27879149 7.0106721
-15.519473 0.44352722 7.1007299
-15.363344 0.45336071 7.1627321
-13.729954 0.53777885 7.0885077
-13.550582 0.51382577 7.0348334
-13.312342 0.54450303 7.147748
-13.111332 0.49052221 7.0771942
-1.1433624 0.53652418 7.0184937
-0.90861034 0.40417466 7.01158
-0.66442525 0.50912625 7.0248928
-0.53699309 0.41948026 7.0460782
-0.21610388 0.52493334 7.0494928
0.42348516 0.53748316 7.0505505
0.75638646 0.49641562 7.044878
1.1198347 0.53306401 7.082355
1.4536602 0.49408138 7.0521436
1.672395 0.59195566 7.0174189
2.0850482 0.49644941 7.0377855
2.3687224 0.45728898 7.0269022
2.4519939 0.48703462 7.0547795
2.8759506 0.47590598 7.0403991
3.0892603 0.50592995 7.0613818
3.2500272 0.46259874 7.0945692
3.423187 0.48018104 7.0569792
3.6254609 0.57649386 7.0044003
3.8976967 0.47569486 7.0558367
4.3688979 0.47350723 7.0591249
4.4460244 0.49518931 7.0547495
4.9137597 0.50155354 7.0753798
5.2886505 0.49277666 7.0508447
5.4132919 0.53673667 7.0168347
5.6060939 0.46292624 7.0862322
6.1638288 0.48225683 7.0408754
6.3578749 0.47302094 7.0180273
6.8992667 0.50717592 7.0231681
7.0379152 0.47406062 7.0396729
7.2903376 0.46414524 7.0680981
7.7641759 0.44866252 7.0342646
7.8953996 0.44868261 7.0529909
8.1018372 0.47622725 7.0759916
8.2617846 0.49227625 7.0428729
8.5508327 0.41875869 7.0366621
8.7425499 0.44040412 7.0635176
9.2485981 0.45618254 7.0572734
9.5555124 0.48361415 7.0250769
9.6442146 0.43051895 7.0539827
10.045044 0.58845121 7.0195966
10.264105 0.47687954 7.0483236
10.728559 0.55626065 7.0370722
10.878118 0.4300732 7.0360107
11.062316 0.44048744 7.0598578
11.613522 0.41538247 7.0670395
11.837517 0.42094579 7.0430264
12.304191 0.5268954 7.0570002
12.571081 0.41578612 7.040791
12.903641 0.46014756 7.0476928
13.072491 0.52150708 7.0408564
13.286379 0.4107604 7.0373468
13.512928 0.59017348 7.0004864
13.681414 0.4294444 7.0638456
13.986267 0.40584093 7.0344477
14.037888 0.58582187 7.0075746
14.288409 0.4281196 7.0039268
14.470789 0.44501942 7.0359173
14.66012 0.40114146 7.0231419
-15.496921 0.6929633 7.1710391
-15.257204 0.73421645 7.1038685
-13.885132 0.67678243 7.1243958
-13.711233 0.62842941 7.0783424
-13.282061 0.62161547 7.0652895
3.9038067 0.63263506 7.0000811
4.0814939 0.67954987 7.0030527
4.2613187 0.60439467 7.0399513
5.5102897 0.64434654 7.0439272
6.2069225 0.66356111 7.0097022
6.9899817 0.66530859 7.0033741
7.0273743 0.62548512 7.0431709
8.1945477 0.64432853 7.008471
8.2264671 0.65175933 7.0178723
10.05221 0.64403629 7.0168695
11.174664 0.60738403 7.0421724
11.840084 0.60820842 7.0047417
12.023559 0.67976105 7.0168457
12.677734 0.71261549 7.0013008
14.10203 0.65136749 7.0055985
-15.560863 -0.7308495 7.3347454
-15.282495 -0.72777849 7.2975035
-15.094385 -0.74163193 7.3326545
-14.076468 -0.66873091 7.3056693
-13.886022 -0.66787106 7.2936587
-13.706241 -0.65400958 7.3573284
-13.526173 -0.60437363 7.3274422
-13.386046 -0.60649121 7.2115793
-15.601506 -0.53588271 7.3922296
-15.551636 -0.47352141 7.3311939
-15.384367 -0.45023286 7.3151364
-13.868572 -0.54207063 7.3481545
-13.782194 -0.48419625 7.2489676
-13.294665 -0.527569 7.3091712
-13.183551 -0.49175572 7.2163935
-15.654337 -0.32401168 7.3564873
-15.530943 -0.38326496 7.3468981
-15.327381 -0.3145662 7.3001804
-13.801222 -0.3587712 7.3908625
-13.699923 -0.25957662 7.2764311
-13.245401 -0.27056786 7.3108063
-15.541687 -0.061747547 7.3469949
-15.385778 -0.028532015 7.3150778
-13.721432 -0.10443195 7.2917061
-13.428133 -0.028532015 7.3032823
-13.23572 -0.10733938 7.340435
-15.497011 0.094470993 7.2860994
-13.724314 0.1167741 7.3034468
-13.256194 0.079145513 7.3175335
-15.62324 0.22377719 7.3714828
-15.585496 0.3577854 7.2992988
-15.329619 0.29950297 7.3017511
-13.67419 0.21782774 7.3030243
-13.266227 0.31270778 7.3138809
-15.535683 0.4442181 7.3483415
-15.238852 0.43676019 7.3993201
-13.844208 0.49994969 7.3546915
-13.732701 0.49041831 7.3215265
-13.591905 0.54627985 7.3708262
-13.17828 0.474729 7.2147398
-15.567358 0.73444134 7.2872543
-15.280409 0.69427449 7.2769365
-15.089376 0.72716713 7.3001304
-14.029264 0.67630279 7.3214226
-13.992695 0.64565003 7.2336097
-13.696543 0.66437793 7.3297148
-13.557478 0.61569452 7.321331
-13.351555 0.60586536 7.3591261
-15.493929 -0.73478806 7.4452505
-15.30514 -0.73084038 7.5093231
-15.111275 -0.72025025 7.4977751
-14.09926 -0.68370295 7.4907184
-13.904974 -0.68455237 7.4976859
-13.679614 -0.63712013 7.5346899
-13.551654 -0.62024188 7.4354677
-15.432978 -0.48100519 7.5146542
-15.323889 -0.49434447 7.5170093
-15.148504 -0.42871341 7.5232148
-13.82201 -0.58803105 7.4670124
-13.71887 -0.47889233 7.4314055
-13.530098 -0.58638775 7.5448542
-13.376599 -0.59660596 7.4726534
-15.623227 -0.32780731 7.4930639
-15.518624 -0.28247303 7.4970436
-15.343812 -0.31485376 7.5281444
-13.715084 -0.28667825 7.4581566
-13.242407 -0.34592134 7.491643
-15.651461 -0.18906718 7.5754442
-15.434559 -0.030581512 7.515687
-15.33274 -0.077266887 7.543241
-15.119637 -0.11820468 7.5909166
-13.692194 -0.058951855 7.5031753
-13.553775 -0.079957224 7.4920669
-15.663913 0.026867151 7.4706221
-15.516829 0.16319837 7.5155272
-15.351855 0.15428367 7.5262432
-15.128506 0.058431119 7.5779715
-13.757597 0.11159866 7.4733539
-13.489937 0.090904057 7.4597239
-13.279072 0.19692266 7.4310675
-15.654331 0.28116739 7.4795246
-15.539655 0.28646535 7.4313121
-15.357742 0.30559251 7.5288849
-15.140495 0.36932167 7.5348959
-13.825216 0.37972969 7.5916777
-13.702812 0.31513274 7.4404769
-15.615971 0.43686074 7.4379797
-15.433594 0.41975942 7.515049
-15.318008 0.4266203 7.5093007
-15.153924 0.50237381 7.5025525
-13.874379 0.58341324 7.4417362
-13.726749 0.56805253 7.4692822
-13.559291 0.48400033 7.546627
-15.500051 0.71478057 7.4624343
-15.320204 0.6918574 7.5261679
-15.088536 0.72908902 7.4868665
-14.916803 0.71561855 7.4998894
-13.908623 0.66159552 7.444663
-13.724689 0.64425725 7.5173101
-13.501951 0.61116129 7.4201379
-15.472157 -0.69656152 7.7019672
-15.207266 -0.60236359 7.6715136
-15.079997 -0.70471108 7.7234297
-14.09159 -0.63763541 7.6721444
-13.919468 -0.64821571 7.6606846
-13.671255 -0.63656759 7.6543837
-15.547733 -0.5032078 7.6742802
-15.308837 -0.45194182 7.6733112
-15.08265 -0.48232573 7.7035394
-13.88975 -0.55407 7.6908379
-13.621438 -0.54575467 7.6594677
-13.56089 -0.42563415 7.7616663
-15.404749 -0.3749482 7.7867265
-15.247378 -0.27040407 7.6468697
-13.515991 -0.37597221 7.6845179
-13.261292 -0.30144143 7.7216058
-15.543715 -0.029307229 7.7237444
-15.224438 -0.083342612 7.7008114
-13.664245 -0.062514797 7.704073
-13.531528 -0.080882773 7.6441221
-13.253389 -0.045759171 7.7147956
-15.400582 0.075741835 7.7984886
-15.239007 0.043313935 7.6308041
-15.162242 0.082708478 7.7160401
-13.728384 0.015750002 7.6880016
-13.459357 0.14113806 7.649518
-15.437786 0.34099227 7.7889562
-15.255839 0.36822218 7.7248206
-15.087832 0.31409183 7.7125697
-13.500261 0.31695688 7.7533822
-13.248038 0.24649429 7.7110796
-15.512697 0.47480959 7.6943626
-15.224061 0.53890336 7.6671085
-15.099863 0.55045539 7.6454687
-13.892438 0.54214376 7.7302446
-13.678974 0.52664483 7.6499472
-13.493415 0.53052664 7.7816954
-15.205986 0.71765602 7.7311811
-15.074478 0.70816672 7.709681
-14.914943 0.70681804 7.6773267
-14.108486 0.65949333 7.7021279
-13.925895 0.63334954 7.6455688
-13.623931 0.61744165 7.6700287
-15.388973 -0.68422592 7.946043
-15.125431 -0.67658198 7.8999395
-14.899071 -0.70775354 7.899662
-14.05276 -0.63937795 7.9132156
-13.925238 -0.62641895 7.8735495
-13.680799 -0.64193726 7.9581208
-15.505931 -0.54981738 7.8305407
-15.312339 -0.50792825 7.8687868
-15.128729 -0.53667676 7.8657517
-13.87154 -0.58295381 7.9601078
-13.738969 -0.59027439 7.9672232
-15.302576 -0.28771821 7.9250579
-15.100605 -0.30193752 7.9358068
-13.829939 -0.31897169 7.9127083
-13.488298 -0.36223361 7.9535275
-15.405865 -0.13440165 7.8054471
-15.266255 -0.075398311 7.9122028
-15.102882 -0.1366013 7.8950872
-13.579065 -0.028532015 7.9249377
-13.242188 -0.14171901 7.8459806
-15.288324 0.094098918 7.9412112
-15.126876 0.093827054 7.922349
-13.258838 0.076429874 7.8579178
-15.26055 0.35701087 7.9425182
-15.110151 0.28522149 7.9641824
-13.823173 0.2721481 7.9225454
-13.460896 0.2997787 7.9488697
-15.402283 0.5872705 7.978116
-15.305963 0.48561224 7.8687973
-15.118356 0.51811117 7.9038792
-13.885565 0.54976338 7.9117842
-13.665987 0.56500435 7.9393263
-13.467144 0.56423378 7.8898525
-13.381619 0.57686538 7.8597689
-15.210785 0.68876773 7.8976703
-15.070633 0.65191495 7.9112988
-14.900386 0.70630199 7.8682389
-14.023756 0.64367396 7.9306049
-13.900017 0.62165213 7.8414049
-13.678152 0.63936651 7.8723278
-13.583087 0.61995459 7.9323111
-15.262044 -0.70826852 8.0736742
-15.091281 -0.6739893 8.147995
-14.883807 -0.70407671 8.0916367
-14.072118 -0.66759664 8.1605988
-13.914339 -0.62228286 8.0908852
-13.736751 -0.64863741 8.0996542
-15.297913 -0.43889886 8.0357838
-15.028114 -0.45930147 8.1346083
-14.967586 -0.48400253 8.0685196
-14.103356 -0.59791005 8.1126842
-13.945815 -0.56831968 8.1718025
-13.529198 -0.50791723 8.1157751
-15.017065 -0.2629396 8.1508694
-13.823329 -0.29195082 8.0405865
-15.31741 -0.096290857 8.0428085
-15.029402 -0.028532015 8.1342106
-14.971308 -0.028532015 8.0651608
-13.723707 -0.10385814 8.0797081
-13.52355 -0.15909848 8.027524
-13.314686 -0.13317367 8.1156158
-15.369899 0.056588128 8.0765495
-15.021205 0.17979318 8.1560707
-13.727847 0.067831002 8.1078043
-13.526613 0.013217568 8.0346909
-13.346276 0.1255742 8.0697794
-15.362238 0.36525106 8.043848
-15.046771 0.33407387 8.1453772
-13.694748 0.29702005 8.075531
-13.268246 0.28240186 8.0985498
-15.297831 0.51747596 8.1857281
-15.013783 0.40847272 8.0904818
-14.969033 0.42692256 8.067214
-14.084722 0.58756101 8.1855431
-13.899062 0.55615985 8.1370687
-13.668185 0.51659763 8.1358318
-13.471228 0.50127804 8.1134892
-13.282953 0.42886552 8.16646
-15.252045 0.68792641 8.0908966
-14.932987 0.67716551 8.1213388
-14.089691 0.65020633 8.1489964
-13.929652 0.62484074 8.0713511
-13.747782 0.63768661 8.0817795
-13.55002 0.60254431 8.0965881
-15.126514 -0.68100303 8.2518835
-14.960718 -0.68354565 8.3019733
-14.153224 -0.65335763 8.3000708
-13.923931 -0.66977739 8.2768974
-13.740257 -0.61519116 8.2097788
-15.282227 -0.53412879 8.3293056
-15.09577 -0.47332546 8.3054485
-14.933004 -0.5092423 8.2754688
-13.918837 -0.53568995 8.3720284
-13.71376 -0.54804701 8.2956924
-13.451097 -0.54432964 8.2015877
-15.20717 -0.34107137 8.2467232
-15.024694 -0.20161545 8.3839073
-13.855128 -0.38224578 8.3879128
-13.540194 -0.34862202 8.3843451
-15.244872 -0.094425417 8.3039379
-15.100966 -0.080669008 8.3120308
-14.975927 -0.059785932 8.333868
-13.68782 -0.13081974 8.2996445
-13.568768 -0.13480881 8.320838
-15.202815 0.10793146 8.2572145
-15.10256 0.074505746 8.3557348
-14.984423 0.064910725 8.350976
-13.641041 0.015278853 8.2937622
-13.537382 0.070368201 8.3237343
-15.212474 0.28234679 8.2535896
-15.097183 0.37683555 8.3206711
-14.949226 0.34921852 8.277195
-13.513193 0.28607485 8.3211279
-13.258354 0.37766805 8.2332039
-15.274589 0.43141329 8.2625809
-15.134787 0.51029956 8.2740269
-14.959068 0.46849525 8.3088436
-14.111438 0.59356457 8.3457527
-13.914461 0.5540306 8.3215456
-13.703421 0.5313921 8.3335209
-13.472115 0.45906425 8.2110443
-13.348483 0.51127172 8.3987675
-15.113914 0.67860764 8.2903748
-14.942081 0.67162311 8.2967434
-14.151183 0.66412181 8.3164129
-13.916125 0.65055078 8.3061819
-13.693305 0.62403512 8.3827829
-15.123337 -0.71512967 8.4595461
-14.883332 -0.69144768 8.466383
-14.67948 -0.687289 8.4799099
-14.11494 -0.6489929 8.4903631
-13.902081 -0.64436656 8.5132313
-13.708797 -0.62982649 8.5390244
-13.553884 -0.60849231 8.5737953
-15.273441 -0.41178304 8.4036818
-15.08827 -0.47710156 8.5182171
-14.925659 -0.43192852 8.5809669
-14.037973 -0.59650326 8.4465342
-13.862292 -0.59618783 8.5666027
-13.704661 -0.50543189 8.487422
-13.454722 -0.54167557 8.5164013
-13.367183 -0.5451259 8.4512587
-15.222662 -0.27957597 8.5489311
-14.970536 -0.35544789 8.4003811
