ply
format ascii 1.0
comment PCL generated
element vertex 1515
property float x
property float y
property float z
element camera 0
property float view_px
property float view_py
property float view_pz
property float x_axisx
property float x_axisy
property float x_axisz
property float y_axisx
property float y_axisy
property float y_axisz
property float z_axisx
property float z_axisy
property float z_axisz
property float focal
property float scalex
property float scaley
property float centerx
property float centery
property int viewportx
property int viewporty
property float k1
property float k2
end_header
-3.4351664 9.4776659 3.1166489
-3.2700319 9.4193382 3.1200683
-0.76693577 9.4562979 3.1230927
-0.47847575 9.4306879 3.1571665
-3.7342374 9.7385311 3.2122295
-3.41836 9.7642384 3.2001066
-3.2914574 9.7801657 3.2056272
-0.73804128 9.7411823 3.1473527
-0.44052804 9.698226 3.0807362
-0.26440114 9.7635555 3.1166627
-3.6837988 9.9677067 3.1273732
-3.4242461 10.011482 3.1145954
-0.72191423 10.016562 3.1487613
-0.4710184 10.039572 3.139735
-3.7272735 10.409304 3.146481
-3.4489093 10.348725 3.1361544
-3.2534256 10.394549 3.2234638
-0.74500501 10.335471 3.1368492
-0.45816085 10.387191 3.1382687
-0.27805996 10.403301 3.0535526
-3.7083201 10.655676 3.2360535
-3.4679747 10.655319 3.1312823
-3.2995629 10.705475 3.0399175
-0.72926062 10.649514 3.1468821
-0.50770539 10.692952 3.0701156
-3.7105622 10.987924 3.1348712
-3.4035785 10.983206 3.1092069
-3.266171 10.950342 3.2243729
-0.91750598 11.03269 3.2808802
-0.77207494 10.905669 3.1412215
-0.46108064 10.951831 3.1488152
-3.6929448 11.302446 3.1898477
-3.4830234 11.254084 3.1440663
-3.2717469 11.354113 3.0636201
-0.76268536 11.246049 3.1531663
-0.46999931 11.296918 3.0616925
-0.28373271 11.195744 3.154675
-3.6975868 11.519401 3.1400421
-3.4146492 11.517211 3.1261299
-3.2048957 11.566709 3.2597489
-0.71605438 11.534067 3.0999019
-0.4869628 11.541183 3.1577089
-3.6725025 11.860911 3.1390433
-3.3941364 11.895454 3.1144087
-3.2579205 11.891665 3.0657382
-0.74088424 11.922087 3.1168585
-0.49229151 11.911082 3.0976617
-3.6779549 12.119806 3.1208966
-3.4903734 12.083534 3.1958778
-3.2502477 12.161677 3.153511
-0.76265514 12.135172 3.1350603
-0.42020169 12.129041 3.1381202
-3.6580579 12.38155 3.1910038
-3.4276729 12.502378 3.1283112
-3.2318377 12.399796 3.1122799
-0.72177523 12.494552 3.1142497
-0.48400053 12.462828 3.149905
-3.686429 12.805239 3.0431414
-3.5560987 12.766867 3.2005942
-3.2298799 12.719923 3.148855
-0.93003893 12.856586 3.1785884
-0.81554174 12.811748 3.1535506
-0.49423218 12.770643 3.1208096
-3.6496713 12.979144 3.1384125
-3.4544799 12.981914 3.1631837
-3.1912937 13.034126 3.1340714
-0.94737017 13.117622 3.2986419
-0.76727855 13.007827 3.1132717
-0.54082465 13.106369 3.1825435
-3.6505866 13.296698 3.2012668
-3.4330013 13.395927 3.178875
-3.1971173 13.322711 3.1591568
-0.95145327 13.332026 3.2570553
-0.75045335 13.349523 3.1191275
-0.51065469 13.336902 3.1598403
-3.6210873 13.634548 3.1024015
-3.4061587 13.672863 3.2110322
-3.1661901 13.641829 3.1797009
-1.0021834 13.709077 3.256762
-0.78917783 13.6954 3.1105857
-0.540456 13.66434 3.1356368
-3.4404671 13.942422 3.1826839
-3.169147 13.989203 3.1556718
-0.96007597 13.956496 3.179651
-0.69221604 13.945957 3.1591821
-0.4978736 14.082208 3.1285579
-3.6105461 14.274944 3.0783248
-3.438004 14.245872 3.1375911
-3.1760101 14.22077 3.2090588
-0.95750523 14.201815 3.1295176
-0.7720297 14.240062 3.1307011
-0.52781451 14.22433 3.1861491
-3.441323 14.565757 3.1800566
-3.1672645 14.579608 3.1768396
-1.0462356 14.595741 3.2566314
-0.75919658 14.565838 3.1215193
-0.55672759 14.619544 3.1323364
-3.6232004 14.890699 3.0933912
-3.4187729 14.828915 3.1506376
-3.1817307 14.862941 3.1938345
-0.93387216 14.788141 3.133378
-0.74229902 14.847366 3.1282253
-0.47057799 14.78732 3.1460154
-3.6951642 15.141996 3.1239376
-3.4618909 15.124282 3.1819377
-3.1612022 15.114251 3.1997736
-0.96833897 15.102633 3.2234058
-0.77873427 15.148416 3.1352057
-0.54837221 15.080343 3.1110847
-3.669208 15.516201 3.1738639
-3.4608047 15.482927 3.1969807
-3.2316551 15.488508 3.2056212
-2.6052666 15.435023 3.2882805
-2.0987537 15.52914 3.2888029
-1.0657811 15.399597 3.2261398
-0.73889041 15.462541 3.1430361
-0.48293242 15.439292 3.1770813
-0.2958709 15.577278 3.2281756
-3.7679782 15.74544 3.1955338
-3.4571102 15.721786 3.1504376
-3.2095671 15.692411 3.1683958
-1.2115762 15.61108 3.2928519
-0.94011986 15.703452 3.2717013
-0.769207 15.782494 3.1342235
-0.48292336 15.666887 3.0881615
-3.998589 16.023869 3.1516483
-3.7657394 16.025797 3.1234004
-3.4292514 15.995646 3.1783788
-3.2066052 15.963316 3.2193985
-2.6362317 15.994284 3.2860024
-2.1125467 15.938941 3.2888165
-2.0279467 15.991369 3.2757969
-1.0449704 15.945047 3.2648811
-0.72889239 15.98702 3.1678538
-0.45417181 16.008657 3.1376266
-0.18634103 16.025572 3.1991825
0.046685219 16.180248 3.0931907
-4.2765665 16.395353 3.1786103
-4.0231876 16.38575 3.1616256
-3.7999482 16.403456 3.196243
-0.37543094 16.44186 3.0545497
-0.16193609 16.388781 3.1245415
0.082862876 16.420509 3.1223578
-4.2553344 16.629765 3.1208482
-4.075573 16.708267 3.1482222
-3.8047385 16.624264 3.154681
-0.12108818 16.666672 3.1908433
0.098326206 16.646198 3.1330853
-4.2544088 16.840883 3.1276555
-4.048758 16.893192 3.181416
-3.7397618 16.956249 3.1031864
-3.4555056 17.013889 3.1219933
-3.1532066 17.037542 3.2162056
-2.918817 17.068214 3.1642594
-2.665174 17.074041 3.2229352
-1.5201064 17.090332 3.2102022
-1.3278737 17.086468 3.1835063
-0.98863506 17.042135 3.1962883
-0.7553885 17.034939 3.1677306
-0.47030172 16.983252 3.1289797
-0.1637011 16.896952 3.104825
0.11022778 16.855225 3.1102006
-3.3302615 17.109571 3.0089011
-3.1990943 17.120789 3.109818
-2.8463013 17.131193 3.1362174
-2.5684628 17.160421 3.155375
-2.1983855 17.189884 3.1264334
-1.9467223 17.205591 3.101763
-1.6453533 17.157749 3.1809883
-1.3785558 17.140715 3.1068242
-1.0543306 17.143936 3.0533395
-0.78042781 17.126617 3.042212
-5.323163 -13.516884 3.3628919
-4.9657164 -13.514395 3.3743298
-4.6440787 -13.537479 3.3158028
-4.3887386 -13.512861 3.411684
-4.0915718 -13.504433 3.4852877
-3.7470598 -13.51667 3.4213417
-3.4171987 -13.520987 3.4237661
-3.1605611 -13.511057 3.5152936
-2.8436894 -13.525192 3.3991349
-2.5612805 -13.522511 3.4017148
-2.2832124 -13.513458 3.5079086
-1.9032686 -13.528564 3.4482999
-1.5520041 -13.521444 3.4198196
-1.4231933 -13.519379 3.4454858
-1.0271943 -13.523368 3.4029193
-0.7471661 -13.537297 3.3742645
-0.42963302 -13.511779 3.4967623
-0.058502834 -13.519328 3.4057453
0.18491033 -13.510473 3.4304128
0.39688468 -13.505519 3.4865758
1.0295308 -13.524561 3.3306427
1.3245316 -13.502844 3.3265989
-7.6410522 -13.27388 3.4573975
-7.3326936 -13.314045 3.4548299
-7.0605431 -13.303314 3.4383161
-6.746696 -13.317381 3.4325867
-6.4379606 -13.341716 3.4624743
-6.1306787 -13.364188 3.4555659
-5.840981 -13.356284 3.4720712
-5.5353756 -13.386872 3.4862404
-5.2735543 -13.396423 3.4721813
-4.9594374 -13.397525 3.4705453
-4.6191406 -13.426525 3.4753594
-4.3508334 -13.418653 3.4606786
-4.0747852 -13.38226 3.4962735
-3.7225852 -13.420309 3.4869843
-3.4570625 -13.419452 3.4678597
-3.1229353 -13.409324 3.4845355
-2.8291354 -13.394663 3.4840839
-2.5410712 -13.394338 3.4811568
-2.2044101 -13.412915 3.5056732
-1.9687978 -13.417408 3.5278816
-1.628971 -13.381174 3.5125704
-1.3962433 -13.394732 3.4676487
-1.044632 -13.42124 3.4967546
-0.78366143 -13.404582 3.4585011
-0.42146742 -13.403942 3.4918127
-0.12141239 -13.432016 3.4926686
0.10981265 -13.40186 3.4975898
0.45095372 -13.398681 3.4944763
0.75152081 -13.415734 3.4898555
1.049 -13.387433 3.4659047
1.3671975 -13.397297 3.4635808
1.6334196 -13.370454 3.4844861
1.9391394 -13.372122 3.4694219
2.244103 -13.35536 3.4745572
2.5481632 -13.333683 3.4699554
2.8507354 -13.340064 3.4376676
3.1378243 -13.312034 3.4504118
3.4393778 -13.26831 3.437628
3.7540951 -13.240726 3.4596517
-7.9156141 -13.023943 3.5306354
-7.6625395 -13.061024 3.4325635
-7.3579092 -13.169063 3.5654349
2.5594561 -13.182243 3.5848174
2.7953722 -13.184251 3.5813181
3.0289636 -13.196448 3.5279925
3.4701033 -13.108872 3.4524953
3.7552071 -13.014498 3.4905698
-7.8732634 -12.816246 3.4739313
-7.7120976 -12.770826 3.4963965
-7.4825945 -12.715977 3.4805059
3.5116024 -12.777037 3.4102645
3.7262166 -12.704653 3.4937954
-7.9413142 -12.493343 3.499613
-7.707314 -12.442233 3.4778128
-7.4875145 -12.384677 3.5975022
3.520323 -12.440922 3.3933659
3.7066269 -12.491639 3.4841213
3.9361744 -12.472898 3.408705
-7.9014902 -12.124521 3.4948039
-7.6732917 -12.136983 3.4334292
3.5170331 -12.142625 3.4095159
3.7522466 -12.139037 3.4608417
-7.9015589 -11.916893 3.4595945
-7.6387839 -11.796908 3.4368927
-7.4826307 -11.889841 3.3519521
3.5205803 -11.825323 3.3872309
3.7651329 -11.853584 3.5253429
-7.9168601 -11.541753 3.4846344
-7.7031775 -11.58787 3.4724808
3.5393004 -11.478037 3.4268453
3.7059417 -11.594391 3.5048151
-7.894979 -11.183188 3.4570825
-7.650744 -11.187403 3.4336045
3.5065587 -11.253119 3.3792534
3.7469974 -11.209958 3.5165012
3.9164155 -11.238274 3.4131951
-7.8741155 -11.024008 3.4935646
-7.7122827 -10.958275 3.4822135
-7.4989872 -10.968221 3.4020634
3.5328526 -10.929864 3.3966291
3.725029 -10.992328 3.5041776
-7.8984971 -10.623109 3.4958844
-7.6634302 -10.623535 3.4530525
3.4862449 -10.559032 3.4074588
3.7185206 -10.652534 3.5151501
3.9221272 -10.780018 3.3651915
-7.8811293 -10.324374 3.4626994
-7.6520619 -10.314442 3.5077248
3.5194464 -10.346619 3.3900943
3.7072306 -10.279361 3.5235262
3.921793 -10.286611 3.4095316
-7.9152889 -10.059884 3.5218287
-7.6729465 -10.065522 3.4673734
3.5216269 -10.07176 3.4440477
3.7036958 -10.093988 3.487318
-7.9149785 -9.7433729 3.5015442
-7.6800804 -9.6835241 3.502986
3.4929953 -9.7524071 3.3877478
3.7279289 -9.76478 3.4830513
3.9171395 -9.7903137 3.4782186
-7.9064479 -9.4258747 3.4565222
-7.6901064 -9.4123297 3.4926906
3.5128043 -9.4702072 3.4179959
3.7524214 -9.4450912 3.4977
-7.8887205 -9.1573334 3.4767756
-7.6445913 -9.1408834 3.5152516
-7.4509754 -9.0542116 3.3865972
-7.0231638 -9.001359 3.5115001
3.1816709 -9.0031681 3.5158663
3.4932578 -9.1310406 3.4158835
3.7191408 -9.1277437 3.4322655
-7.8506031 -8.9278297 3.4524798
-7.5948029 -8.9359732 3.4346328
-7.3378677 -8.9309092 3.4541085
-7.0299363 -8.9132128 3.4605789
-6.7612467 -8.8596172 3.4645104
-6.454268 -8.8240786 3.4607191
-6.1513634 -8.8030252 3.423496
-5.8529472 -8.8216686 3.4861538
-5.5486197 -8.7594242 3.455179
-5.2532434 -8.767561 3.5423307
-5.0315695 -8.7458954 3.5151205
0.80261326 -8.7492228 3.5976167
0.99144816 -8.7915421 3.5472004
1.3735265 -8.7722797 3.4726121
1.6706194 -8.7770491 3.480818
1.9668472 -8.7906284 3.4873281
2.22628 -8.8398056 3.4443722
2.5684624 -8.864975 3.4474275
2.8301203 -8.9085636 3.4382744
3.1392555 -8.893446 3.4516919
3.4278753 -8.8971024 3.3428822
3.6981657 -8.9888582 3.5431969
-5.842103 -8.6785612 3.4971368
-5.5712504 -8.6221828 3.432127
-5.2059784 -8.5845032 3.4746788
-4.9336486 -8.5703421 3.5167708
-4.651886 -8.5905209 3.4419739
-4.3117547 -8.4715118 3.4982536
-3.7768359 -8.4548874 3.5864868
-0.31146908 -8.4002199 3.5530519
-0.081429958 -8.4035091 3.4993837
0.16660623 -8.4625425 3.4552112
0.41480151 -8.5201111 3.4447801
0.77381366 -8.5616579 3.4603775
1.0282972 -8.5836124 3.4443574
1.3407607 -8.591609 3.4445794
1.5702941 -8.6577492 3.4398575
1.868347 -8.6811924 3.4092762
-4.8285723 -8.3898945 3.4429333
-4.6504221 -8.3453321 3.4554665
-4.3780775 -8.3522797 3.4309556
-4.005619 -8.2763357 3.5360997
-3.7661583 -8.2011108 3.4369736
-3.4718635 -8.1844435 3.5038817
-0.68223155 -8.194397 3.5018904
-0.52112484 -8.1902657 3.4603386
-0.20367827 -8.2562227 3.4558411
0.16793814 -8.2988214 3.4319954
0.36267728 -8.3199968 3.3589048
0.61106658 -8.3191919 3.3368716
-4.2338428 -8.093152 3.3264396
-3.7481813 -8.0181656 3.4157596
-3.4748349 -8.0095749 3.397681
-3.1370177 -7.9208441 3.5474448
-2.9940484 -8.0023994 3.5670671
-2.6580825 -7.9414449 3.5708728
-1.5882032 -7.8052759 3.5711355
-1.3872662 -7.8273048 3.5246506
-1.12082 -7.9620137 3.5691204
-0.72310567 -7.8638282 3.3779087
-0.43072551 -8.0093737 3.434783
-0.14647329 -8.0009842 3.3805652
-3.641274 -7.7203808 3.4249926
-3.411356 -7.5963583 3.4639888
-3.1611187 -7.611732 3.4668813
-2.9651835 -7.691515 3.472898
-2.5954149 -7.658082 3.5149822
-2.2961175 -7.6580176 3.5370998
-1.9333028 -7.5206385 3.5411351
-1.5695443 -7.7219748 3.5547981
-1.3073928 -7.6680412 3.5078986
-0.998218 -7.6813412 3.4676809
-0.73686606 -7.6027174 3.4119568
-0.49299797 -7.6069145 3.4138627
-3.3912122 -7.3100471 3.5170214
-3.1259747 -7.2618561 3.4208403
-2.9148006 -7.287734 3.4944444
-2.5367734 -7.3397322 3.4813232
-2.2617059 -7.2713585 3.4643693
-1.9930716 -7.3175082 3.5233104
-1.5197604 -7.3221941 3.4587882
-1.3208073 -7.2951603 3.465327
-1.0395308 -7.3267703 3.3776643
-0.67270297 -7.3530178 3.5166538
-3.4636376 -7.0766358 3.4416921
-3.1548722 -7.1051679 3.4434474
-2.8468969 -7.0667014 3.4649577
-2.5736895 -7.0701275 3.4678056
-2.2614284 -7.0829616 3.4749031
-2.0123997 -7.0361404 3.5221717
-1.7442994 -7.0473528 3.5725701
-1.3593525 -7.0011435 3.4501858
-1.0229172 -7.109313 3.4295654
-0.77238309 -7.097466 3.4382651
-0.56616533 -7.0984397 3.396708
-3.3823733 -6.7298288 3.5076282
-3.1757445 -6.7322879 3.4628499
-2.8372998 -6.7325263 3.4874773
-2.555434 -6.6991549 3.4745667
-2.262434 -6.74016 3.4799464
-1.9450343 -6.7555857 3.5089519
-1.7813621 -6.7710109 3.564033
-1.3113689 -6.721211 3.4487982
-1.0147456 -6.6567969 3.3813965
-0.75636768 -6.6957855 3.5151622
-0.57651556 -6.7434273 3.3365953
-3.43278 -6.4703956 3.4929104
-3.1399901 -6.5079126 3.4346533
-2.8728731 -6.4451842 3.4933584
-2.5469601 -6.4483843 3.4410267
-2.274951 -6.3727331 3.428987
-2.0196767 -6.4560885 3.4252815
-1.3697606 -6.4579606 3.459096
-1.0203434 -6.5073643 3.4496233
-0.74832225 -6.5088186 3.4458437
-3.3633609 -6.0456877 3.5097432
-3.1619215 -6.1253386 3.4300456
-2.8224385 -6.1234384 3.4570982
-2.5437198 -6.1267996 3.4943969
-2.2317903 -6.1713734 3.4321566
-2.0032105 -6.1532774 3.4743967
-1.7568381 -6.2101994 3.5296085
-1.3099954 -6.2130923 3.4494004
-1.0006895 -6.0858631 3.3907006
-0.76705426 -6.0797839 3.4708383
-0.58522499 -6.2193274 3.3475957
-3.432059 -5.909215 3.4761038
-3.1579378 -5.8503909 3.4802043
-2.8723874 -5.8609324 3.4740863
-2.526089 -5.8045664 3.423619
-2.2705755 -5.8194375 3.4270973
-2.0383444 -5.8549871 3.4146879
-1.7705088 -5.7545524 3.5062294
-1.3431644 -5.8303738 3.4607289
-1.0343914 -5.8950858 3.4450912
-0.73249871 -5.8949842 3.4202023
-0.58280945 -5.7628832 3.332407
-3.4388952 -5.4824939 3.4809694
-3.1582427 -5.562109 3.4269316
-2.8564973 -5.543839 3.4336751
-2.5395586 -5.5788317 3.4833901
-2.2313185 -5.6162295 3.4218206
-1.9895808 -5.5512862 3.472877
-1.73718 -5.4832244 3.5308123
-1.3395079 -5.6160073 3.4510195
-0.99824184 -5.5798354 3.3977213
-0.76001269 -5.5612741 3.4695644
-0.58923566 -5.6612282 3.3618231
-3.3253701 -5.2242055 3.5343394
-3.1697054 -5.2202125 3.4664385
-2.8726804 -5.2939434 3.452354
-2.523309 -5.1704206 3.4306655
-2.2473931 -5.2491884 3.4060969
-2.020777 -5.1805358 3.4373722
-1.7703226 -5.2070684 3.5061526
-1.3184137 -5.2257833 3.4643002
-0.98516846 -5.2301345 3.4148011
-0.70091432 -5.1985393 3.4804788
-0.58698946 -5.1698551 3.3545437
-3.424104 -4.9013438 3.4598095
-3.1477923 -4.964849 3.4448729
-2.860508 -4.9101601 3.4664404
-2.5411742 -5.0136471 3.4937742
-2.2310214 -4.9872332 3.4185233
-2.0336373 -4.9931741 3.5002003
-1.7654526 -5.0786719 3.4990146
-1.3574685 -4.9133143 3.4476686
-1.0284168 -4.9929848 3.4039741
-0.77397394 -4.9612446 3.4336593
-3.1688035 -4.6333923 3.4572465
-2.8512161 -4.6096864 3.4356885
-2.5175405 -4.62673 3.41659
-2.2472024 -4.628613 3.4198806
-1.9912813 -4.6444888 3.4184849
-1.7539711 -4.6634073 3.5185039
-1.3122605 -4.6606035 3.4633882
-0.99147499 -4.6419082 3.40519
-0.73280185 -4.6275597 3.4580288
-0.58671969 -4.6431723 3.356935
-3.4208782 -4.340776 3.4614501
-3.1599078 -4.3734598 3.4467301
-2.8599801 -4.3235769 3.4688258
-2.5536923 -4.45577 3.5255296
-2.2295959 -4.3720794 3.3997123
-2.0077453 -4.3652387 3.4890487
-1.773876 -4.2618289 3.5092201
-1.3406705 -4.2947822 3.44892
-1.0429139 -4.3015041 3.4226301
-0.78432232 -4.3748164 3.4217427
-0.58156615 -4.2361603 3.33918
-3.3673503 -4.055398 3.47737
-3.1448574 -4.0920539 3.4152675
-2.8434949 -3.9831583 3.4572911
-2.5307949 -4.0216112 3.4550283
-2.2251809 -4.0515308 3.419621
-2.0174477 -4.0670838 3.4703989
-1.7499897 -4.0306931 3.5199411
-1.3279681 -4.071455 3.4616394
-0.98667419 -4.0711937 3.3860738
-0.7221005 -4.0533886 3.4681842
-0.58889711 -4.0545011 3.3694532
-3.435185 -3.7465928 3.452934
-3.1622262 -3.7382555 3.4512773
-2.8660591 -3.7748296 3.4555171
-2.5342567 -3.7507133 3.4745581
-2.2343278 -3.7251904 3.4060373
-2.0131643 -3.7376416 3.4858391
-1.7730925 -3.7516494 3.5088496
-1.357278 -3.6992319 3.4503634
-0.99846613 -3.7121308 3.427218
-0.7607252 -3.7331862 3.4491634
-0.58131278 -3.7246397 3.3416162
-3.3774967 -3.3872192 3.548367
-3.1476662 -3.4943273 3.446589
-2.8137946 -3.5012529 3.4850264
-2.5495508 -3.4107194 3.5006819
-2.265286 -3.4687145 3.4076674
-1.9940057 -3.4740574 3.4409385
-1.7583094 -3.4606042 3.5156546
-1.2961692 -3.5080595 3.4726877
-1.0709509 -3.4395688 3.3710916
-0.73638737 -3.4437635 3.4391961
-0.58848959 -3.51582 3.3717899
-3.3333759 -3.1365871 3.4586847
-3.1842589 -3.1139612 3.4750805
-2.8684897 -3.1792359 3.4555871
-2.5372975 -3.1669867 3.463707
-2.2440789 -3.1426494 3.4056859
-2.0328834 -3.1355772 3.4848266
-1.7526882 -3.1701293 3.5146034
-1.3489044 -3.1394219 3.4538987
-1.0379634 -3.150317 3.4458544
-0.75066996 -3.1899164 3.4539785
-0.58524758 -3.1258492 3.3509698
-3.3504262 -2.866066 3.5240953
-3.145124 -2.8680723 3.4356813
-2.8283036 -2.8677447 3.4776056
-2.549511 -2.8790305 3.5006328
-2.2553322 -2.842463 3.3964958
-1.99246 -2.8921797 3.45963
-1.7692888 -2.8430831 3.5060518
-1.3024346 -2.8078055 3.4786835
-1.046478 -2.8124254 3.3924036
-0.74867249 -2.8426695 3.4195392
-0.58821183 -2.9106579 3.3918514
-3.3489051 -2.5530725 3.5235176
-3.1557822 -2.526371 3.4284732
-2.8759325 -2.5599189 3.462429
-2.5398936 -2.6171012 3.4716191
-2.2539775 -2.5013864 3.4140003
-1.9923159 -2.5705626 3.4549766
-1.7464623 -2.5434141 3.52566
-1.356777 -2.5802212 3.4418051
-1.0379385 -2.5074954 3.3913782
-0.75349796 -2.5324178 3.4697809
-0.58524305 -2.6109519 3.3509626
-3.3522666 -2.2867801 3.5285134
-3.1842406 -2.2206469 3.4628174
-2.8500485 -2.2442856 3.4546094
-2.5347972 -2.2272422 3.4615715
-2.2415545 -2.2457893 3.3681102
-2.0190899 -2.2386713 3.4645751
-1.7681551 -2.2299709 3.5000298
-1.3253311 -2.233228 3.4749439
-1.0254009 -2.1673632 3.3790154
-0.73873764 -2.2278476 3.4420729
-0.58509016 -2.2617376 3.3752124
-3.3366365 -2.0041282 3.4740119
-3.1486435 -1.9336753 3.4522529
-2.8883274 -1.9944031 3.4573267
-2.5561559 -1.9496984 3.515995
-2.2623765 -1.9430144 3.434691
-2.0348446 -1.9209813 3.4877751
-1.7463939 -1.9272165 3.5271153
-1.3375752 -2.0097272 3.4309468
-1.0426369 -1.929366 3.4032414
-0.7482264 -1.9092321 3.4415126
-0.58889955 -2.0101013 3.3519366
-3.3570347 -1.6403935 3.5323529
-3.1817601 -1.6552017 3.4709575
-2.8666751 -1.6312555 3.4517341
-2.5161569 -1.6193943 3.4265754
-2.2509084 -1.6929587 3.3860085
-1.9898447 -1.6431077 3.4331713
-1.7689075 -1.6907485 3.5001097
-1.3287138 -1.6479924 3.4679649
-1.0460701 -1.6331863 3.3869095
-0.7381925 -1.6744747 3.4503324
-0.58553362 -1.7162561 3.3811426
-3.3462119 -1.3798265 3.5209084
-3.1467392 -1.3425112 3.3694618
-2.8610108 -1.3931632 3.4613159
-2.551389 -1.3308119 3.4820602
-2.2321773 -1.3600328 3.4223912
-2.0353909 -1.3452127 3.5292072
-1.7003806 -1.3319848 3.5136027
-1.3584857 -1.4047362 3.4568996
-1.0467722 -1.351918 3.4502907
-0.7678985 -1.3221593 3.4113147
-0.55116934 -1.3982158 3.4014411
-3.3808327 -0.93469936 3.443651
-3.1564052 -1.0495267 3.4481065
-2.8614395 -0.94991529 3.4603212
-2.5273249 -1.094667 3.4634767
-2.2497613 -1.0593524 3.3779449
-1.9884045 -1.0828896 3.4431863
-1.7584907 -1.1152008 3.5022571
-1.3251852 -1.0737097 3.4559119
-1.0387897 -1.1002712 3.3919809
-0.71763271 -1.1085075 3.4898813
-0.5866968 -1.1069977 3.3733406
-3.3308723 -0.81491256 3.5553291
-3.1366184 -0.73193598 3.4040527
-2.8692663 -0.74743128 3.4511504
-2.5527725 -0.76374906 3.4998438
-2.2267573 -0.70571578 3.4108076
-2.0030048 -0.75626349 3.4868033
-1.7666004 -0.67655063 3.5133157
-1.2922051 -0.70015705 3.449007
-1.0190701 -0.74606973 3.387012
-0.74420661 -0.7327987 3.4182234
-0.58643979 -0.61614633 3.3931408
-3.4496574 -0.38121781 3.4335108
-3.1624115 -0.43503189 3.4880655
-2.8604159 -0.3895416 3.4604881
-2.5247941 -0.49455175 3.4351106
-2.2864704 -0.4886674 3.3916485
-2.009479 -0.50218248 3.429822
-1.7477131 -0.52534634 3.5213082
-1.3456944 -0.46178812 3.460603
-0.98571843 -0.51286447 3.4103329
-0.74710864 -0.41490671 3.4852188
-0.58835769 -0.47503853 3.3433242
-3.3355591 -0.18922174 3.5541945
-3.1464231 -0.15392043 3.4090657
-2.8808084 -0.19126081 3.4410586
-2.5437675 -0.15843777 3.4878426
-2.2046576 -0.14639418 3.3789907
-2.0145583 -0.16462414 3.4987247
-1.7680997 -0.089719772 3.5062885
-1.3169296 -0.087699309 3.4478011
-1.0223086 -0.18027939 3.3810987
-0.73771828 -0.13274647 3.4392052
-0.58652914 -0.06166482 3.3988638
-3.4171114 0.20031917 3.466723
-3.18153 0.20019028 3.4331181
-2.8673222 0.12271126 3.4518037
-2.5313454 0.24384317 3.4869361
-2.2900369 0.11503457 3.4086685
-2.005501 0.18138 3.4451506
-1.7398803 0.12764311 3.5316515
-1.3544042 0.11417781 3.4642487
-1.0129687 0.16744411 3.4441743
-0.75944942 0.18286879 3.4229934
-0.58809519 0.03404808 3.340384
-3.5189116 0.53733993 3.4027855
-3.1600633 0.458327 3.4532039
-2.8481138 0.41568267 3.4559309
-2.5282953 0.4387849 3.4490407
-2.2244639 0.48425817 3.4096711
-2.0260589 0.43967652 3.4784284
-1.7691697 0.48765099 3.5047567
-1.3138758 0.47563416 3.4553015
-1.0034733 0.42484248 3.3832214
-0.73735374 0.42081639 3.469038
-0.58693826 0.51108074 3.3821647
-3.4018679 0.72200197 3.4873495
-3.1421969 0.74247253 3.393522
-2.8683128 0.76490867 3.4687605
-2.5476923 0.8008554 3.5075791
-2.271975 0.79903108 3.432307
-1.9941748 0.78305471 3.4696646
-1.7508001 0.85065472 3.5078976
-1.3757503 0.73913497 3.4459083
-1.0140095 0.72736567 3.4196188
-0.75160813 0.73958057 3.4212782
-3.3400369 1.1111193 3.522475
-3.1987152 0.96004188 3.4829261
-2.8111081 1.0502409 3.4630449
-2.5177629 1.0358779 3.4333127
-2.2422748 1.0387183 3.3850324
-2.0062027 1.0143223 3.4578793
-1.7555168 1.0367583 3.5252359
-1.3226613 1.0242834 3.4569516
-1.0174242 1.0119597 3.4269049
-0.6926558 1.0072875 3.5074811
-0.58715791 1.0538526 3.3852897
-3.4116991 1.3239082 3.4848142
-3.1421316 1.321497 3.4123333
-2.9064584 1.3389306 3.4456139
-2.5395243 1.3901767 3.4779389
-2.2014768 1.3781519 3.3635139
-2.0242333 1.3832544 3.4753592
-1.7523644 1.4354168 3.5080132
-1.3391851 1.3590636 3.4476488
-1.014769 1.3507742 3.3990276
-0.76356894 1.3403897 3.4364727
-0.58108938 1.4637811 3.36865
-3.4245594 1.6688868 3.463747
-3.2106354 1.6502622 3.4581861
-2.8497047 1.6325369 3.4657717
-2.5208869 1.6604037 3.4538257
-2.2676082 1.6005442 3.4526865
-1.9943603 1.6227494 3.4578743
-1.7546772 1.6380026 3.5259445
-1.3335717 1.6224146 3.4621577
-0.92617905 1.5641673 3.5954549
-0.71690649 1.527981 3.4337955
-0.59114802 1.665933 3.3989344
-3.4416249 1.9217057 3.5134144
-3.1406064 1.911341 3.4219029
-2.8700314 1.9912385 3.455838
-2.5382025 1.9296389 3.4712715
-2.2330871 1.9943384 3.3784347
-2.0260866 1.9685429 3.4666131
-1.7609042 2.0353842 3.5050819
-1.337889 1.9883966 3.4478137
-1.0157416 1.88811 3.4206109
-0.74484289 1.9493706 3.4530182
-0.5850668 2.0235693 3.3510656
-3.3788421 2.2414429 3.5040898
-3.1565962 2.3204532 3.4551234
-2.8305798 2.2646756 3.4818931
-2.5296481 2.3150148 3.4616323
-2.2614579 2.1582241 3.4112899
-1.9919059 2.2669492 3.4527683
-1.7678975 2.2114921 3.5062683
-1.3774183 2.2116139 3.4472072
-1.0203936 2.2771664 3.4516423
-0.78999865 2.3072953 3.3949723
-0.59366745 2.3870296 3.4737203
-3.429096 2.5321629 3.4879446
-3.1639111 2.4929254 3.3932796
-2.8698437 2.5549457 3.4637482
-2.5369637 2.5417178 3.4714277
-2.23928 2.548099 3.3895977
-2.0141735 2.5464973 3.4627604
-1.7572203 2.5456779 3.5234594
-1.3247458 2.5597148 3.4588797
-1.0097367 2.5137174 3.4338207
-0.70890027 2.519804 3.4513295
-0.58506298 2.5386908 3.3511224
-3.4310558 2.866205 3.4983177
-3.1437123 2.8938029 3.4265285
-2.8373897 2.83779 3.4771152
-2.5183961 2.8860314 3.4318373
-2.2628908 2.8570392 3.466028
-2.0009458 2.9002433 3.4611566
-1.7485061 2.8066988 3.5136697
-1.4005868 2.7880092 3.4464974
-1.0187471 2.9275446 3.3823631
-0.80240393 2.9059181 3.4725654
-3.4213271 3.213927 3.4794741
-3.1316719 3.121053 3.4562356
-2.8472447 3.157882 3.4759057
-2.5474916 3.0940003 3.517622
-2.2508657 3.1397481 3.3992794
-2.0106323 3.1155961 3.4502044
-1.7566395 3.1314235 3.5237331
-1.3466429 3.13395 3.4632874
-1.0352843 3.1008854 3.4341631
-0.67222655 3.2082229 3.3719053
-0.58848727 3.0363693 3.3955231
-3.3921678 3.448478 3.5040474
-3.148082 3.4527454 3.3894348
-2.8445714 3.4616952 3.4704528
-2.5240834 3.4196353 3.4429843
-2.2263873 3.4794648 3.4302046
-2.0414953 3.4743373 3.4764049
-1.7597215 3.4880652 3.5090568
-1.3408321 3.5029545 3.4478073
-1.0250831 3.4389968 3.3929677
-0.77762526 3.4213152 3.4498036
-0.584791 3.5689418 3.3510027
-3.4273713 3.7757974 3.5012119
-3.1770906 3.7313221 3.4378862
-2.880089 3.8460991 3.4714708
-2.5414789 3.7275777 3.4886625
-2.2534068 3.7244356 3.3691089
-2.0074422 3.7345772 3.4617777
-1.7884116 3.7039979 3.4929531
-1.3392017 3.7264135 3.4555101
-1.0197625 3.7081993 3.4561152
-0.75933003 3.7741089 3.4413257
-0.59529883 3.6202879 3.4931111
-3.4077725 4.0752835 3.5047736
-3.1461897 4.0224738 3.4434912
-2.824131 4.0274181 3.4774294
-2.5317452 4.0329208 3.4470146
-2.2607532 4.0455155 3.4323795
-2.0140343 4.0720229 3.4560256
-1.747063 4.0559382 3.526264
-1.3431307 4.0350032 3.4507692
-1.0372493 4.0207367 3.399404
-0.74983656 4.0195384 3.4294348
-0.58478111 4.0841703 3.3510816
-3.4326704 4.4161048 3.4833908
-3.1865356 4.3594198 3.4436803
-2.8965802 4.408288 3.4416962
-2.5418046 4.3629866 3.4887416
-2.2425504 4.3040886 3.3852
-2.0109432 4.3293281 3.4926288
-1.7902546 4.2194147 3.4925325
-1.3747778 4.3600011 3.4561863
-0.9976207 4.3673816 3.4501312
-0.77855933 4.3629971 3.4655976
-0.54681844 4.2392368 3.4255953
-3.4259396 4.6336646 3.4954927
-3.1239958 4.6348491 3.4284172
-2.8133619 4.6062331 3.4973726
-2.5291371 4.6578546 3.4560132
-2.2395146 4.624692 3.4248955
-2.007808 4.6453767 3.4377854
-1.7226369 4.6202512 3.4906526
-1.3511862 4.6274652 3.4543395
-1.0237192 4.6421952 3.412082
-0.76716125 4.6176085 3.4500549
-0.5581156 4.6430736 3.3478951
-3.3742518 5.0296497 3.5227306
-3.1985943 4.9226022 3.4427786
-2.8720944 4.9976187 3.4572423
-2.532021 4.9519424 3.4572597
-2.2629461 4.9450817 3.4097579
-2.0111523 4.9827805 3.4715316
-1.734905 4.9746714 3.5477853
-1.360968 5.0300574 3.4572635
-1.0464355 4.9356189 3.4267492
-0.74225628 4.9215655 3.4446859
-0.59296572 4.9644022 3.4138713
-3.4441876 5.2283154 3.5006657
-3.1661422 5.2381434 3.4199123
-2.8298547 5.2992678 3.4863844
-2.5456505 5.319818 3.5140023
-2.2549467 5.2186732 3.4380467
-2.0122876 5.265069 3.4591115
-1.6818641 5.2310295 3.473516
-1.3240327 5.2346487 3.4566467
-1.0109401 5.206131 3.4265163
-0.76567882 5.2352433 3.4176624
-0.57827288 5.1752357 3.385325
-3.3907869 5.5920386 3.523386
-3.1464193 5.4606228 3.4735906
-2.8393056 5.5523443 3.4797151
-2.5299606 5.5200372 3.416142
-2.262094 5.5871367 3.398936
-2.0086546 5.5104342 3.4318123
-1.770877 5.6076441 3.5066643
-1.3448033 5.5766158 3.4541297
-1.0245492 5.5175118 3.4394433
-0.74536914 5.5733047 3.4771819
-0.58626091 5.5265694 3.4107556
-3.4441128 5.795217 3.5169353
-3.1836536 5.8601494 3.4551511
-2.8597543 5.8268557 3.481405
-2.5425119 5.8533707 3.5114036
-2.2648225 5.890655 3.4325376
-2.0313008 5.8479557 3.4928346
-1.6436585 5.8201294 3.490407
-1.3485436 5.7909765 3.4791398
-1.0190818 5.8736153 3.4369025
-0.76449215 5.8398781 3.4533329
-0.52713662 5.7513828 3.3651555
-3.4457917 6.1462884 3.49296
-3.1625559 6.0933881 3.4101853
-2.826292 6.1020789 3.4381397
-2.5955925 6.1618147 3.4936914
-2.2373726 6.1226749 3.4164219
-1.9753654 6.1714206 3.4683895
-1.7044892 6.1061125 3.556561
-1.3366051 6.1436996 3.4870892
-1.0435722 6.2151809 3.4816444
-0.75046903 6.2006879 3.4887075
-0.55320215 6.1769633 3.4281266
-3.4291544 6.5012131 3.5249863
-3.1716812 6.4228201 3.4710004
-2.8933606 6.4615388 3.4795434
-2.5504174 6.4456406 3.4881992
-2.3000174 6.4618907 3.4986792
-1.9825253 6.5135355 3.5358143
-1.5628887 6.4112105 3.4800019
-1.3743701 6.5302448 3.4675052
-0.98779058 6.4298429 3.4507267
-0.76423049 6.4515171 3.4820619
-0.45223618 6.3164873 3.3680613
-3.4236052 6.7578177 3.4582407
-3.1414292 6.8152184 3.4482179
-2.8003643 6.6088552 3.4300656
-2.5820394 6.7667379 3.5090382
-2.2302513 6.7530212 3.4638803
-2.0382118 6.7581882 3.5439978
-1.3164048 6.7616773 3.503572
-1.047631 6.7811565 3.488472
-0.73823619 6.784812 3.4672387
-0.51945245 6.7457838 3.4019661
-3.6496921 7.1776185 3.3632758
-3.4423096 7.0509458 3.4479947
-3.1722093 6.9857888 3.4734359
-2.8761139 7.0487328 3.4449723
-2.5523484 7.0659437 3.4954765
-2.2340875 7.0262032 3.5011671
-2.0203838 7.0732293 3.5593147
-1.5734334 7.0185251 3.5106702
-1.393191 7.0749536 3.4734251
-0.98751938 7.0053792 3.4391913
-0.75734031 7.058578 3.4811444
-0.57660532 7.0237508 3.5184932
-3.4557486 7.3018885 3.4470315
-3.18185 7.367393 3.4629607
-2.8962369 7.4915113 3.4293959
-2.5883708 7.3798647 3.5607297
-2.2487857 7.2738409 3.5029273
-2.02795 7.2540913 3.5659029
-1.6065143 7.4010677 3.4996352
-1.3500351 7.3415756 3.5425899
-1.0381701 7.4073653 3.4814308
-0.74789107 7.3469748 3.4545355
-0.53736007 7.3927302 3.4647155
-3.6516557 7.7209868 3.4469965
-3.4351039 7.6144881 3.4279592
-3.1814396 7.6274772 3.4306073
-2.8810289 7.6650176 3.4760568
-2.5966144 7.6395621 3.5339377
-2.2156732 7.6058831 3.5388908
-2.0500648 7.6474047 3.583781
-1.592211 7.5633087 3.511673
-1.3837491 7.6205711 3.5271688
-1.0280807 7.6508842 3.4526057
-0.73199779 7.6536593 3.4253788
-0.53737724 7.6360292 3.4255967
-3.7199492 8.0466805 3.3500204
-3.490195 7.9992204 3.4167778
-3.1914668 7.9309406 3.4719319
-2.9558253 7.9899802 3.4816499
-2.5739307 7.9664798 3.5510473
-2.272419 7.9243164 3.5163515
-2.0028572 7.8541937 3.5905666
-1.5713087 7.9904342 3.5388258
-1.3198571 7.9694924 3.5195031
-1.0476038 7.9402642 3.4794075
-0.74269843 7.9088044 3.5003846
-0.51480615 7.9825888 3.4554012
-3.6548352 8.2877827 3.4864542
-3.4749248 8.2293921 3.417114
-3.1725667 8.2652912 3.4937005
-2.9544373 8.158597 3.4987531
-2.6648259 8.2459297 3.484175
-2.3170018 8.2669659 3.5483379
-1.8559883 8.1931801 3.5273099
-1.7229278 8.1889114 3.510843
-1.3655387 8.2734251 3.5393257
-0.98717213 8.2279339 3.4769635
-0.75236088 8.2814178 3.4136379
-0.54417926 8.1774302 3.466444
-3.676867 8.5672712 3.3690796
-3.4657891 8.5393982 3.3821373
-3.2198358 8.5151672 3.4806623
-2.9441452 8.5914116 3.4959412
-2.5474796 8.6086569 3.5327165
-2.2789888 8.5220337 3.5414586
-1.56498 8.570199 3.5500953
-1.3664197 8.5512953 3.5193336
-0.98700285 8.5058241 3.5224814
-0.74206859 8.5153198 3.4336984
-0.50560594 8.5678387 3.4736042
-3.6479392 8.8982668 3.4223995
-3.4579411 8.8599529 3.4054303
-3.1193185 8.8890886 3.5398285
-2.2904968 8.921133 3.5704801
-1.9316056 8.9138527 3.5279129
-1.6964564 8.8075619 3.5450234
-1.2383265 8.9161482 3.5990589
-1.0039968 8.8132629 3.5205698
-0.76646566 8.8720102 3.4535499
-0.45451391 8.7759438 3.5379567
-3.6732259 9.2620869 3.3354754
-3.4540703 9.1852484 3.3783112
-3.1155093 9.1921644 3.4979234
-2.7130654 9.059948 3.5064745
-2.5333257 9.1371365 3.5511596
-2.3329849 9.2114391 3.5329952
-1.878584 9.1592865 3.5659893
-1.6536655 9.1114941 3.5361423
-1.366889 9.1136036 3.5386837
-1.0791254 9.1311474 3.5341625
-0.74365836 9.160408 3.4451578
-0.48109236 9.1437912 3.4637535
-3.6809864 9.4166374 3.4573932
-3.4337101 9.444705 3.4132321
-3.1441176 9.4583721 3.5195861
-2.8837495 9.4688797 3.5055387
-2.5549798 9.5384064 3.5480413
-2.3017411 9.3990326 3.5688
-2.0474992 9.5489197 3.5441442
-1.6470613 9.4900322 3.5605609
-1.0402313 9.4649878 3.4986911
-0.71716148 9.4757328 3.4708273
-0.45212156 9.5043564 3.4505858
-3.6475182 9.7371521 3.3610065
-3.5032375 9.7774706 3.3977051
-3.1415167 9.7392368 3.5264268
-2.7226243 9.7442827 3.4964092
-2.5466051 9.6986618 3.5643992
-1.8853559 9.7864704 3.5667903
-1.5396332 9.7117462 3.5325651
-1.3616157 9.7439365 3.5401819
-1.1003221 9.7495213 3.4903667
-0.74500179 9.7570419 3.4809673
-0.44850683 9.7560997 3.3919973
-3.6684206 10.034945 3.4561875
-3.431416 10.006073 3.3815532
-3.1229641 10.045938 3.5143719
-2.8086686 10.079977 3.551106
-2.5059061 10.079057 3.5721326
-2.2545545 9.9833975 3.5738938
-1.6597837 9.9712229 3.5667958
-1.4862972 10.162666 3.5602672
-1.0715507 10.059496 3.5528417
-0.72292978 10.042318 3.4442594
-0.46485019 10.086704 3.4672327
-3.6641903 10.363952 3.4143105
-3.4636564 10.340733 3.4151115
-3.1524932 10.349916 3.513535
-2.7339268 10.476406 3.5179462
-2.6069393 10.277354 3.5573282
-2.3047409 10.384556 3.5738769
-1.8518894 10.275146 3.5672717
-1.6338758 10.392799 3.5589836
-1.3451211 10.37358 3.5302386
-1.0596442 10.316467 3.485261
-0.76237327 10.420474 3.4955132
-0.45040703 10.362497 3.4187298
-3.6514816 10.654408 3.4289556
-3.4481847 10.636667 3.3890016
-3.1434052 10.60989 3.4666085
-2.9660881 10.534481 3.4419971
-2.5344543 10.621861 3.5735054
-2.2617331 10.632557 3.540853
-1.9333975 10.611994 3.5603786
-1.5380502 10.738972 3.531621
-1.36953 10.696134 3.5494263
-1.0680254 10.64115 3.5001266
-0.68280101 10.653408 3.4351447
-0.45798153 10.547974 3.4158411
-3.6815915 10.924133 3.4389567
-3.4291949 10.921936 3.4258676
-3.1183875 10.943403 3.5031743
-2.8062329 10.893777 3.5460567
-2.531441 11.005015 3.5500116
-2.3017125 10.972116 3.581239
-1.859098 10.859709 3.5812223
-1.660265 10.924503 3.5617988
-1.3212569 10.953003 3.5259128
-1.0490708 10.925951 3.5307558
-0.76076937 10.975239 3.4704518
-0.47989845 10.948929 3.4240322
-3.6733432 11.188792 3.4367251
-3.4915218 11.261501 3.3971086
-3.127357 11.241817 3.5545793
-2.9988658 11.399236 3.5462909
-2.6323969 11.230805 3.5293493
-2.2436366 11.267383 3.5500913
-1.9064835 11.242133 3.558969
-1.6178131 11.312801 3.544373
-1.4061112 11.189833 3.544136
-1.0027554 11.277601 3.4759345
-0.7354269 11.244365 3.4434922
-0.42575717 11.240101 3.4225574
-3.6448016 11.490574 3.3830583
-3.4398398 11.528191 3.4076786
-3.1403029 11.53266 3.5082359
-2.8850434 11.536731 3.4766998
-2.5105245 11.526688 3.5373154
-2.1805611 11.649134 3.5462008
-1.8243949 11.603906 3.5279219
-1.6132613 11.411367 3.5416031
-1.2886941 11.604594 3.5339506
-1.0442796 11.529324 3.5102577
-0.72276223 11.521028 3.4450438
-0.51959747 11.46734 3.4475098
-3.6782067 11.873328 3.3858676
-3.4127984 11.88359 3.4084184
-3.1549726 11.829214 3.5264671
-2.9175613 11.897781 3.5148063
-2.5004745 11.8359 3.5609741
-2.266947 11.925575 3.5469913
-1.9302001 11.857013 3.5554423
-1.6057363 11.890814 3.5501211
-1.4012594 11.831497 3.4967449
-0.99587637 11.882414 3.501039
-0.72885132 11.878646 3.4186766
-0.49883768 11.899237 3.4299054
-3.4941194 12.185805 3.4280534
-3.1300104 12.149554 3.4718635
-2.921891 12.142475 3.4998755
-2.5496829 12.107237 3.5035155
-2.223362 12.19895 3.520833
-2.0613647 12.171939 3.5152907
-1.744297 12.167259 3.5265117
-1.3111516 12.231018 3.5419455
-0.98058861 12.154475 3.4838581
-0.75707006 12.070474 3.4974794
-0.51710844 12.136276 3.4735889
-3.6736219 12.434608 3.3459413
-3.4662716 12.449073 3.4471421
-3.1926117 12.454358 3.4735882
-2.9470992 12.477867 3.4706225
-2.6132998 12.418989 3.5721245
-2.2295399 12.414755 3.5329885
-1.974757 12.416956 3.5580139
-1.6083838 12.406894 3.5350883
-1.3836322 12.355227 3.5183196
-1.0378933 12.441482 3.4852629
-0.73613697 12.479449 3.4220822
-0.54881591 12.428873 3.4875088
-3.4288418 12.789563 3.4204905
-3.140044 12.746544 3.4503083
-2.9178309 12.739132 3.4791503
-2.5653434 12.714451 3.5126462
-2.2648404 12.77643 3.5197768
-1.9826815 12.720543 3.5586596
-1.5912695 12.815884 3.5325365
-1.3352551 12.799942 3.5298996
-1.0624177 12.759436 3.4874005
-0.64413208 12.783663 3.4287162
-0.51777273 12.737746 3.4944544
-3.4248753 13.059008 3.4240184
-3.1521749 12.960775 3.4829338
-2.8960581 13.093718 3.4503703
-2.5958023 13.066301 3.5283217
-2.1484375 12.990247 3.5810051
-1.9821682 13.093562 3.5206199
-1.692942 13.085958 3.5202422
-1.3150755 12.971565 3.460777
-1.0302254 13.004561 3.4725609
-0.78764641 13.02854 3.4672422
-0.50702214 13.119383 3.4638648
-3.4117105 13.331738 3.4804914
-3.1467505 13.371232 3.4487252
-2.8727694 13.269341 3.4722004
-2.5768347 13.289517 3.5241864
-2.2043107 13.33946 3.5007706
-1.9352634 13.286503 3.54407
-1.6182773 13.316106 3.5060558
-1.3792384 13.335262 3.5169387
-1.0518112 13.400694 3.5046804
-0.72396672 13.365309 3.4633803
-0.48638904 13.309298 3.3358111
-3.4523406 13.67601 3.4721386
-3.1848993 13.644211 3.4740207
-2.8980262 13.639974 3.4366615
-2.5662172 13.656297 3.5058274
-2.2556026 13.662949 3.5134397
-1.9698769 13.648427 3.5163212
-1.6756005 13.691277 3.5022798
-1.3659196 13.68938 3.486486
-1.0414563 13.690967 3.4716034
-0.74008942 13.715227 3.3975067
-0.57372451 13.576521 3.5640779
-3.4103315 13.876829 3.4513607
-3.1640308 13.948676 3.4639804
-2.8582783 13.953163 3.4113336
-2.5856838 13.9861 3.5273194
-2.1982346 13.942052 3.4939609
-1.8988028 13.970541 3.4884887
-1.6705903 13.968348 3.5167229
-1.3572118 13.954538 3.4891963
-1.0433238 13.932456 3.4796433
-0.79950732 13.927979 3.483119
-0.54742217 13.925816 3.338562
-3.4233549 14.197195 3.4571598
-3.1484318 14.28837 3.426667
-2.8508024 14.198719 3.4917669
-2.5913022 14.299751 3.5032494
-2.2613897 14.223669 3.5147791
-1.9091687 14.207202 3.5342388
-1.6782322 14.268295 3.5007741
-1.3708104 14.230334 3.4490871
-1.0491631 14.241442 3.4621074
-0.74592495 14.23788 3.4474277
-0.5026896 14.247898 3.5306861
-3.6576548 14.587796 3.3166952
-3.4375861 14.610575 3.4214504
-3.1763241 14.587447 3.4718857
-2.8608153 14.581679 3.4634101
-2.5820534 14.60499 3.4652457
-2.26054 14.592911 3.4777613
-1.9281658 14.589785 3.4955957
-1.6524597 14.56771 3.4435055
-1.3294363 14.599562 3.5165508
-1.0870337 14.573944 3.4574003
-0.74218094 14.545427 3.464236
-0.52451491 14.446896 3.3800702
-3.379003 14.790805 3.45997
-3.1225791 14.871746 3.4044821
-2.8342962 14.852661 3.4538724
-2.5714822 14.908923 3.4733634
-2.2507317 14.799553 3.5030489
-1.9681723 14.862442 3.4758227
-1.6719724 14.89254 3.49738
-1.3282371 14.795954 3.4265161
-1.0021199 14.848737 3.4715793
-0.76845002 14.925221 3.4273129
-0.52804315 14.852631 3.328197
-3.6099486 15.215477 3.5240808
-3.4735277 15.147061 3.4415038
-3.1364751 15.123781 3.485111
-2.880347 15.161748 3.4986203
-2.5557718 15.153222 3.4714386
-2.2234824 15.148664 3.4642117
-1.9572263 15.169418 3.4846928
-1.6133494 15.134193 3.5173206
-1.3396982 15.162031 3.4229989
-1.0794801 15.109648 3.468082
-0.73752975 15.106978 3.4729733
-0.51154995 15.077777 3.4916632
-3.4224107 15.53054 3.4182014
-3.1371152 15.492725 3.4592659
-2.8673263 15.459806 3.4578278
-2.539233 15.493061 3.4797273
-2.2980802 15.482405 3.4726562
-1.9735385 15.525829 3.4955204
-1.6130619 15.47919 3.4851632
-1.3606635 15.493965 3.5239148
-1.0312066 15.533699 3.4648304
-0.75211346 15.469635 3.4163105
-0.53865021 15.493848 3.4709229
-3.7017744 15.742179 3.39885
-3.4752789 15.693714 3.4872413
-3.1264029 15.722711 3.5135217
-2.8237464 15.659689 3.4869325
-2.5513718 15.718035 3.4545677
-2.2364826 15.775793 3.4237971
-1.9737946 15.70381 3.4403996
-1.6327516 15.718893 3.4674251
-1.3419846 15.761693 3.447011
-1.0350552 15.73205 3.3982046
-0.70242089 15.740347 3.486515
-0.50505912 15.710658 3.4582138
-3.9639468 16.051201 3.4080701
-3.710041 16.019535 3.4386725
-3.4013953 16.047417 3.4749084
-3.1966891 16.022562 3.4383957
-2.84378 15.985219 3.4234257
-2.5677884 16.020273 3.4488361
-2.2694528 16.015882 3.5206676
-1.9150043 16.021149 3.4883354
-1.5756228 16.057198 3.5273638
-1.2492423 16.029253 3.4856308
-0.98983467 16.051743 3.4827623
-0.71201193 15.976821 3.4690385
-0.45528015 16.041906 3.3991866
-0.21105631 16.049623 3.4415057
-4.0119886 16.425314 3.4613814
-3.732245 16.393486 3.4707253
-3.4942112 16.314926 3.4082327
-3.1993971 16.352411 3.5638969
-2.8199973 16.426729 3.5650294
-2.5704358 16.253834 3.5190113
-2.2034733 16.219679 3.5270853
-1.8919444 16.365826 3.5910606
-1.5762759 16.411858 3.5692084
-1.360708 16.285862 3.5599418
-1.0239793 16.405577 3.4987693
-0.73913717 16.302927 3.4913068
-0.41541833 16.401373 3.5303349
-0.21791498 16.40794 3.4370382
0.085571967 16.40336 3.4216189
-4.0247264 16.701914 3.4646997
-3.7606587 16.65946 3.4428761
-3.1237359 16.516611 3.5116901
-2.4314997 16.645348 3.5884869
-0.91516542 16.560059 3.50998
-0.61862516 16.604115 3.5161934
-0.40416116 16.633749 3.4258347
-0.07762742 16.63422 3.4345026
0.094974518 16.635763 3.4800816
-4.0155749 16.882065 3.4437408
-3.739691 16.880812 3.4331653
-3.4442027 16.952568 3.466835
-3.1397042 17.002638 3.4251399
-2.8548753 17.035254 3.4835339
-2.5444372 17.065531 3.3951492
-2.2643266 17.056223 3.4542873
-1.970796 17.056698 3.4783306
-1.6278629 17.072884 3.4196699
-1.3045454 17.050163 3.4534824
-1.0487721 17.019577 3.4545925
-0.74013752 16.98233 3.4167416
-0.43736881 16.900366 3.4546132
-0.18263307 16.876511 3.4022689
0.060408115 16.841297 3.3487992
-2.7596865 17.128792 3.3644168
-2.4904194 17.133532 3.3530698
-2.2441382 17.159424 3.4084194
-1.9697554 17.143862 3.411845
-1.6585363 17.144045 3.3759401
-1.3088526 17.109169 3.3990145
-7.5608945 -13.243956 3.7581887
-7.3094683 -13.225599 3.784785
-7.0285382 -13.263509 3.7263386
-6.8136001 -13.303931 3.6846063
-6.4015222 -13.304104 3.7796738
-6.1051807 -13.273949 3.7360287
-5.8585091 -13.309705 3.7111564
-5.5199647 -13.292474 3.7191598
-5.2267289 -13.32129 3.7344611
-4.9423904 -13.302047 3.7426023
-4.6406646 -13.303016 3.7079999
-4.367631 -13.295135 3.780936
-4.0878534 -13.315145 3.7751927
-3.7579715 -13.348046 3.7041168
-3.4004962 -13.299756 3.7601922
-3.1979582 -13.327838 3.7599876
-2.8582189 -13.304918 3.7498171
-2.5728519 -13.331115 3.7853987
-2.2777591 -13.339266 3.7438006
-1.8752331 -13.316937 3.7517445
-1.6993607 -13.338514 3.6975963
-1.3352679 -13.320924 3.7751374
-1.0265167 -13.326934 3.726861
-0.73469472 -13.298958 3.7752237
-0.42982489 -13.332268 3.7515991
-0.12561499 -13.324679 3.7272241
0.13604383 -13.303364 3.7371333
0.50427288 -13.317728 3.7048891
0.77122653 -13.30734 3.7554526
1.0819086 -13.329913 3.777493
1.3163385 -13.295929 3.7398632
1.6603724 -13.304346 3.7453411
1.9447984 -13.286312 3.6956048
2.318017 -13.297719 3.7189014
2.5380592 -13.268236 3.801316
2.8683877 -13.265529 3.7414868
3.1792424 -13.244649 3.7417219
3.3487246 -13.229734 3.8152361
-7.8696532 -13.120876 3.7699423
-7.7051611 -13.07519 3.7589023
-7.3499045 -13.10368 3.7693431
-7.0348773 -13.149022 3.7245955
-6.7965107 -13.124796 3.8234568
-6.4741702 -13.164771 3.7787361
-6.2159739 -13.166254 3.7248626
-5.8496275 -13.170519 3.8035107
-5.553215 -13.159964 3.761456
-5.254787 -13.147318 3.8393996
-5.0154085 -13.184969 3.7814851
-4.6316104 -13.167468 3.853179
-3.9649673 -13.191005 3.8019953
-3.6906314 -13.199168 3.7567635
-3.4032269 -13.158758 3.8598137
-3.0341516 -13.144489 3.8778944
-2.8518364 -13.190372 3.8963146
-2.1623273 -13.185308 3.8400509
-1.8792996 -13.169157 3.8781857
-1.7631477 -13.183348 3.7714229
-1.387265 -13.16301 3.8523278
-1.0780886 -13.173548 3.7947946
-0.027168989 -13.109433 3.8506029
0.14344382 -13.161443 3.784606
0.45598602 -13.176601 3.787389
1.1007533 -13.129973 3.8433814
1.408577 -13.078767 3.8842015
1.5791466 -13.192922 3.727905
1.9387448 -13.172728 3.787231
2.2876937 -13.127062 3.8217907
2.5426941 -13.148115 3.7838728
2.8489885 -13.152685 3.7314358
3.1626406 -13.107874 3.7694607
3.4753838 -13.111716 3.7895141
3.7376373 -13.00333 3.7732558
-7.9348125 -12.766181 3.7133446
-7.635272 -12.757649 3.7291427
3.4975755 -12.79111 3.8210657
3.7346914 -12.75226 3.8210468
-7.9269347 -12.346237 3.6824481
-7.6725731 -12.441802 3.7824309
3.5052333 -12.397429 3.7756996
3.7188048 -12.483814 3.7204516
-7.9616404 -12.160373 3.8096194
-7.6398759 -12.141704 3.7654123
3.4643652 -12.093345 3.7869949
3.7609868 -12.180739 3.7906415
3.9060512 -12.186997 3.7903728
-7.9543629 -11.889509 3.698657
-7.6487198 -11.769794 3.7143369
3.5461922 -11.901855 3.8229027
3.7714782 -11.764304 3.7450225
-7.9387493 -11.533127 3.6762979
-7.7046952 -11.55891 3.8359313
3.4889414 -11.530076 3.8253841
3.7615247 -11.602958 3.7962976
-7.9690065 -11.286319 3.7142465
-7.6600966 -11.205459 3.7314715
3.513063 -11.161528 3.7784419
3.7781227 -11.217875 3.7838991
-7.9512205 -10.947302 3.6990452
-7.6657748 -10.986137 3.7874393
3.5000873 -10.955825 3.8442397
3.7008331 -10.997083 3.7768285
-7.9464884 -10.627094 3.7060642
-7.6574173 -10.666768 3.7211628
3.537503 -10.62018 3.8727071
3.7852354 -10.626832 3.7519786
3.9046116 -10.793408 3.600132
-7.9477882 -10.31475 3.766778
-7.6549087 -10.354417 3.7250154
3.5131712 -10.365016 3.8077619
3.7354419 -10.401905 3.7210331
-7.9533091 -10.064391 3.7214227
-7.6602602 -10.095738 3.7451642
3.5379179 -10.04376 3.8658004
3.7896743 -10.067504 3.7612746
3.9512734 -10.078317 3.7521193
-7.9409804 -9.7197685 3.7468174
-7.6773057 -9.7655582 3.7478585
3.4927545 -9.7430182 3.8072267
3.6956687 -9.7392025 3.7382705
-7.9337807 -9.4750643 3.7352462
-7.6159415 -9.434761 3.7664294
-7.4526672 -9.5080242 3.8574069
3.4975021 -9.4689245 3.8406656
3.8116505 -9.4795895 3.7370975
-7.9559145 -9.111989 3.7381263
-7.6788216 -9.1711893 3.7411904
-7.36344 -9.1457281 3.7942104
-7.056004 -9.0786943 3.698756
-6.777205 -9.1084166 3.7513602
-6.4856305 -9.0647488 3.7863181
-6.1768007 -9.0363579 3.7299984
-5.8474722 -9.0359707 3.7750983
-5.6566734 -9.0404854 3.8021336
-5.2430496 -9.0487061 3.8849549
1.2541873 -9.0321016 3.8297954
1.6625524 -9.0785942 3.8290398
1.9428892 -9.0540295 3.7564998
2.2897005 -9.0664558 3.7452474
2.5676455 -9.0733976 3.7757499
2.8894687 -9.1485291 3.7784839
3.135608 -9.1211309 3.791652
3.4457369 -9.2027311 3.7895808
3.699666 -9.1416473 3.7312186
3.9091721 -9.1467171 3.6356826
-7.6008677 -8.9479885 3.7349994
-7.3861628 -8.9189787 3.6904936
-7.1217294 -8.9485292 3.7914021
-6.7406311 -8.9215593 3.7181833
-6.4151583 -8.9010191 3.6955013
-6.1088271 -8.9276476 3.7596297
-5.8814611 -8.8460455 3.7591369
-5.5557809 -8.8663177 3.7271986
-5.2597318 -8.8594761 3.7663476
-4.8555408 -8.7383347 3.6861484
-4.6531901 -8.8030348 3.7721593
-4.3174572 -8.8205605 3.8197484
-4.081358 -8.7088022 3.7393782
-3.7356367 -8.7227917 3.8661976
-2.680979 -8.722249 3.8957705
-0.70524955 -8.7469864 3.8784099
-0.18203664 -8.7318459 3.7771461
0.12435055 -8.8087616 3.8670535
0.46933156 -8.8428411 3.8234048
0.72148913 -8.8491793 3.8175969
1.0514927 -8.8488426 3.7771528
1.3398671 -8.8665848 3.8076208
1.6804825 -8.8309174 3.7158909
1.8949826 -8.8748169 3.7594459
2.2607853 -8.871789 3.7549195
2.5163934 -8.9128628 3.7511339
2.8960061 -8.9094858 3.7134006
3.1399281 -8.9323587 3.7062399
3.494417 -8.9589653 3.7247634
3.7223632 -8.9709873 3.6676414
-5.4952073 -8.671814 3.7688055
-5.329319 -8.6232624 3.700048
-5.0283318 -8.586771 3.7104633
-4.6057844 -8.6049347 3.7031093
-4.3579788 -8.5923052 3.7291846
-3.9891047 -8.5197258 3.7469449
-3.8248687 -8.5492191 3.744235
-3.4506369 -8.5404024 3.8258181
-3.1885593 -8.6101694 3.8443432
-2.9480138 -8.4682989 3.8107059
-2.6214457 -8.4491806 3.8018725
-2.2160931 -8.4462843 3.7947431
-1.958801 -8.4706221 3.7897358
-1.7319087 -8.4203262 3.7557807
-1.4335954 -8.4806366 3.7670979
-0.99410051 -8.5414534 3.8298631
-0.78220415 -8.5380211 3.8137524
-0.4122256 -8.6076307 3.7911272
-0.12997897 -8.5618725 3.7651188
0.0026819706 -8.5961809 3.6233373
0.45273754 -8.5261097 3.7643199
0.77358454 -8.5500851 3.7372868
1.0942074 -8.6058168 3.6527212
1.2959878 -8.6830826 3.7518399
1.5449936 -8.6713524 3.6315169
-4.5796242 -8.3780155 3.6570377
-4.3415308 -8.3276043 3.6979194
-3.9998903 -8.2769918 3.7129381
-3.7668688 -8.2091808 3.7670982
-3.428602 -8.2648182 3.8008378
-3.280951 -8.2210903 3.7334623
-2.8200545 -8.1885347 3.7556343
-2.5361705 -8.2711811 3.7681034
-2.20645 -8.2037601 3.8347945
-1.9674525 -8.2832842 3.7936628
-1.6903086 -8.2266207 3.759824
-1.3619614 -8.2034855 3.8135858
-1.0094718 -8.1870222 3.7817328
