ply
format ascii 1.0
comment PCL generated
element vertex 1595
property float x
property float y
property float z
element camera 0
property float view_px
property float view_py
property float view_pz
property float x_axisx
property float x_axisy
property float x_axisz
property float y_axisx
property float y_axisy
property float y_axisz
property float z_axisx
property float z_axisy
property float z_axisz
property float focal
property float scalex
property float scaley
property float centerx
property float centery
property int viewportx
property int viewporty
property float k1
property float k2
end_header
47.690159 43.408302 16.936905
39.941566 43.633862 16.97007
48.725422 44.145874 16.928156
39.673447 44.344311 16.864477
42.262787 44.389271 16.953178
43.696091 44.900932 16.964203
39.809147 45.158134 16.920494
42.262779 45.172596 16.999855
46.416855 45.184299 16.820808
40.848373 45.260281 16.87365
47.883114 45.259212 16.940735
47.670601 45.769077 16.950571
48.493198 45.730183 16.811459
39.935978 45.938683 16.969276
46.933636 45.976738 16.987385
39.569885 46.308651 16.818466
42.262791 46.385941 16.909922
36.812733 46.861794 16.878815
48.763023 46.984203 16.901922
39.680336 47.196354 16.863903
44.375099 47.109409 16.821218
42.262772 47.239445 16.95063
38.009354 47.622002 16.806826
39.80912 47.611462 16.918772
42.262775 47.624966 16.996408
47.881447 47.707947 16.940269
40.848484 47.914757 16.873085
46.14719 48.043564 16.899189
47.650848 48.150906 16.964359
48.44352 48.148273 16.843559
39.930359 48.254639 16.968485
46.418591 48.370293 16.823616
43.69635 49.202404 16.965508
39.585022 49.776131 16.818478
42.262764 49.849079 16.906239
48.79871 49.807213 16.876144
39.687229 50.033226 16.863323
39.80912 50.065102 16.918772
42.262768 50.070679 16.924778
47.879803 50.156708 16.939783
46.951748 50.259388 16.970634
39.924713 50.581802 16.967678
47.632225 50.553501 16.978733
48.394711 50.589024 16.875952
36.900082 50.661106 16.90995
40.84861 50.606365 16.872517
44.401054 50.762527 16.811266
48.041672 51.31987 16.995535
46.419903 51.622402 16.825727
38.061321 51.898148 16.817688
39.809109 52.518471 16.917046
42.262772 52.530144 16.99122
47.878143 52.605495 16.939329
48.835915 52.616627 16.850157
39.694054 52.855049 16.862762
39.919044 52.920269 16.966875
42.262772 52.892059 16.940382
47.612125 52.97826 16.992764
48.344082 53.053909 16.908663
39.599934 53.204952 16.818516
40.848736 53.335899 16.871937
42.262779 53.271095 16.899408
43.696621 53.428982 16.966738
46.149788 54.300995 16.90374
36.985374 54.406822 16.939396
44.427643 54.506554 16.801056
46.968391 54.465874 16.953344
39.809109 54.972126 16.917046
42.262772 54.983185 16.99122
46.421696 54.940643 16.828632
47.876499 55.054314 16.938845
39.913353 55.269848 16.967661
48.292942 55.542728 16.941713
48.872955 55.411751 16.824301
39.700871 55.66272 16.863899
42.262775 55.698879 16.941351
48.093288 55.794033 16.952066
38.112091 56.098122 16.826994
40.848854 56.10416 16.871353
42.262764 56.392242 16.82938
39.614742 56.596981 16.820091
42.262783 56.661682 16.90056
39.809109 57.425781 16.917046
42.262772 57.43623 16.99122
43.696877 57.582664 16.967979
47.874847 57.503159 16.938347
39.907612 57.631134 16.966854
37.069496 58.101498 16.968464
48.241314 58.05582 16.975061
46.423531 58.328064 16.831617
39.70763 58.454762 16.863327
42.262775 58.490849 16.942286
46.984768 58.599899 16.936371
40.848972 58.91198 16.870758
39.629326 59.950329 16.820107
39.809109 59.879429 16.917046
42.262772 59.889263 16.99122
47.873177 59.952034 16.937881
39.901871 60.003963 16.966034
42.262779 60.013607 16.900131
48.145203 60.183765 16.909721
38.162285 60.227146 16.837488
46.152958 60.858452 16.909277
39.714367 61.232117 16.862768
42.262772 61.267323 16.941502
48.747009 61.572937 16.987469
37.151588 61.744747 16.995819
40.84911 61.760212 16.870167
43.697136 61.66531 16.96921
46.425419 61.7869 16.834637
39.852592 62.360641 16.940273
42.262772 62.342304 16.99122
42.262779 62.549778 16.833225
47.871544 62.40094 16.937408
47.001976 62.664829 16.92045
39.64378 63.268105 16.821678
42.262779 63.329979 16.901268
39.72105 63.994881 16.862211
42.262775 64.029976 16.942442
38.211311 64.28389 16.846478
48.196136 64.489784 16.868137
39.849686 64.785561 16.939865
40.849228 64.649742 16.869553
42.262772 64.795349 16.99122
39.950073 64.968079 16.998161
47.869888 64.849869 16.936932
46.426846 65.320518 16.836985
43.69738 65.678696 16.970396
36.839539 66.109329 16.831331
48.94136 66.059845 16.859556
39.658085 66.548447 16.82169
39.727715 66.743912 16.863367
42.262775 66.694138 16.922886
47.01778 66.659348 16.904039
39.88443 67.192543 16.963585
39.809097 67.240021 16.91361
42.262772 67.248383 16.99122
47.868233 67.298828 16.936457
39.938808 67.554672 16.997639
40.849361 67.581451 16.868948
46.157406 67.733879 16.917091
48.413239 67.676773 16.884283
38.259796 68.273262 16.856628
42.262779 68.51709 16.836971
48.246101 68.71447 16.827381
46.427349 68.932594 16.837795
39.734337 69.477821 16.862782
42.262783 69.511185 16.942612
39.672234 69.794357 16.823221
39.843826 69.653053 16.93819
42.262772 69.701424 16.99122
43.697613 69.624611 16.971577
47.868233 69.747986 16.936457
42.262775 69.854691 16.903503
39.927425 70.166595 16.997101
40.849487 70.556313 16.868315
47.035484 70.589699 16.889448
37.003368 71.348595 16.892204
48.361237 71.421967 16.926735
48.275845 71.966415 16.976748
38.307182 72.193962 16.865282
39.740936 72.198189 16.86392
39.840874 72.095802 16.937775
42.262772 72.154465 16.99122
47.868233 72.197151 16.936457
42.262775 72.230705 16.943531
47.442616 72.559639 16.800682
46.428356 72.622208 16.83942
39.915943 72.804214 16.996563
39.686222 73.005196 16.824755
42.262775 73.064178 16.904604
40.849377 73.574249 16.868837
43.697857 73.504715 16.972736
42.262783 74.302811 16.84059
39.866749 74.487747 16.962717
47.05183 74.453064 16.87434
39.809097 74.601074 16.91361
42.262772 74.607506 16.99122
47.868233 74.646309 16.936457
39.747509 74.903717 16.863358
42.26276 74.936066 16.944462
46.161636 74.961044 16.924465
39.904327 75.467926 16.996025
47.43008 75.605743 16.812864
38.354069 76.050659 16.875111
39.700058 76.180428 16.824739
42.262779 76.239189 16.905682
46.429379 76.393112 16.841068
37.162937 76.451645 16.951473
40.849255 76.637207 16.869373
39.86079 76.943787 16.961885
39.809097 77.054756 16.91361
42.262772 77.060547 16.99122
47.868233 77.095467 16.936457
43.69783 77.319237 16.972586
39.754032 77.595879 16.864483
42.262783 77.626717 16.943689
39.892624 78.157333 16.996895
47.068974 78.253944 16.860229
47.417358 78.697647 16.825207
39.713741 79.322838 16.826254
42.262775 79.38028 16.906757
39.831959 79.460052 16.938137
42.262772 79.51358 16.99122
47.868233 79.544624 16.936457
40.849392 79.747261 16.86874
38.399876 79.842087 16.883503
42.262779 79.915146 16.844116
39.760521 80.274094 16.865618
42.262779 80.3041 16.944595
46.430439 80.247978 16.842766
39.880791 80.874382 16.99633
43.698078 81.072594 16.973698
37.297001 81.366692 16.977846
39.828945 81.9272 16.937714
42.262772 81.966621 16.99122
47.085827 81.992462 16.846359
47.404438 81.836395 16.837753
47.868233 81.99379 16.936457
39.727299 82.431839 16.827745
42.262783 82.4869 16.906282
46.166294 82.56308 16.932667
39.766972 82.937851 16.865055
40.849277 82.903389 16.86927
42.262768 82.967033 16.943838
38.444927 83.571243 16.891735
37.04232 83.688049 16.828035
39.86882 83.61869 16.995787
46.431496 84.189674 16.844513
39.842743 84.3853 16.960989
39.809097 84.415802 16.91361
42.262772 84.419662 16.99122
47.868233 84.442947 16.936457
43.698303 84.764908 16.974817
47.391323 85.023056 16.850498
42.262775 85.361755 16.847536
39.757057 85.548225 16.847679
42.262764 85.561783 16.907358
42.262783 85.616882 16.944757
47.102394 85.67012 16.832706
40.849438 86.10878 16.868618
39.856762 86.390694 16.995222
39.822884 86.879959 16.937693
42.262772 86.872704 16.99122
47.868233 86.892105 16.936457
38.489559 87.241005 16.901112
39.779789 88.224945 16.865597
42.262775 88.253105 16.945663
43.698524 88.397614 16.975901
46.433105 88.219826 16.847113
47.377998 88.258743 16.863426
39.753975 88.551697 16.830666
42.26276 88.604309 16.908405
39.844547 89.190796 16.994678
39.809097 89.323166 16.91361
40.849571 89.363495 16.86797
42.262772 89.325745 16.99122
47.117668 89.287132 16.818542
47.868233 89.341263 16.936457
39.830582 89.408577 16.96092
46.171238 90.571526 16.941284
42.262764 90.649841 16.850838
38.533169 90.850143 16.909063
39.786156 90.848465 16.866707
42.262764 90.875252 16.944908
39.767086 91.563599 16.832108
47.364483 91.544586 16.876539
39.809097 91.776855 16.91361
42.262764 91.696899 16.950329
47.868233 91.790421 16.936457
39.824425 91.939453 16.960064
43.698753 91.972191 16.97699
39.832245 92.019447 16.994106
46.434235 92.344177 16.848927
40.849705 92.668701 16.867285
47.133728 92.847519 16.805338
37.357273 93.381165 16.91396
39.792496 93.458572 16.867811
42.26276 93.484566 16.945814
39.809097 94.230537 16.91361
42.262772 94.231819 16.99122
47.868233 94.239586 16.936457
38.576073 94.401459 16.916899
39.780083 94.543175 16.832056
39.81826 94.482643 16.960869
42.262783 94.59436 16.91045
39.81979 94.87709 16.993521
47.350742 94.881767 16.889883
43.698704 95.488724 16.976797
42.262775 95.784706 16.853168
39.798786 96.054825 16.867252
40.849838 96.025551 16.866619
42.262764 96.08004 16.945053
46.435387 96.564667 16.8508
39.809097 96.684219 16.91361
42.262772 96.68486 16.99122
47.868233 96.688744 16.936457
39.812061 97.039223 16.960003
39.792919 97.492867 16.833471
42.262772 97.542877 16.911476
39.807209 97.763222 16.994406
38.618286 97.896317 16.924603
47.336788 98.271507 16.903412
39.805054 98.638412 16.868359
42.262779 98.662849 16.945934
43.698917 98.951118 16.977854
39.809097 99.137901 16.91361
42.262772 99.137901 16.99122
46.17667 99.018181 16.950827
47.868233 99.137901 16.936457
40.849976 99.435295 16.865925
39.805847 99.608284 16.960791
39.805664 100.41216 16.834873
42.262779 100.4601 16.911022
39.794506 100.68013 16.993834
42.26276 100.77596 16.856316
46.436562 100.88469 16.852715
38.660152 101.33727 16.933424
39.811275 101.20889 16.869431
42.262768 101.23206 16.945189
39.809097 101.59158 16.91361
42.262772 101.59094 16.99122
47.868233 101.58706 16.936457
47.322613 101.71503 16.917191
39.799587 102.19095 16.959934
43.699146 102.35938 16.978882
37.640476 102.44487 16.974865
40.850128 102.89919 16.865225
39.818253 103.30154 16.836269
42.262772 103.34834 16.912001
39.781666 103.6274 16.993244
39.817486 103.76586 16.868885
42.262756 103.78878 16.946083
39.809097 104.04527 16.91361
42.262772 104.04398 16.99122
47.868233 104.03622 16.936457
38.70105 104.72315 16.940876
39.793289 104.78682 16.95908
46.437778 105.30783 16.854668
47.308197 105.21365 16.931179
42.262764 105.62801 16.859358
43.699348 105.71476 16.979906
39.830696 106.16057 16.836197
39.82365 106.31042 16.869968
42.262772 106.26964 16.929173
39.809097 106.49895 16.91361
40.850277 106.4185 16.864525
42.262772 106.49702 16.99122
47.868233 106.48538 16.936457
39.768707 106.60549 16.992655
39.786964 107.39543 16.959869
46.182438 107.94179 16.960897
38.741322 108.05648 16.948223
47.293583 108.76868 16.94537
39.827309 108.92876 16.874077
42.262772 108.90659 16.968719
47.868233 108.93454 16.936457
42.262779 109.03698 16.913992
43.699303 109.01736 16.9797
39.755615 109.61389 16.993538
40.85043 109.99462 16.863792
46.439007 109.83781 16.85668
39.780617 110.01801 16.959009
42.262772 110.34666 16.862339
38.780693 111.33733 16.954247
39.835896 111.36074 16.870485
42.262768 111.381 16.94548
47.868233 111.3837 16.936457
39.809097 111.40631 16.91361
42.262772 111.4031 16.99122
39.855251 111.79382 16.83893
42.262779 111.83823 16.914951
43.699528 112.27068 16.980701
47.278709 112.38152 16.959812
39.758301 112.65428 16.976377
40.850853 113.63025 16.86178
39.825539 113.86357 16.892574
42.262768 113.87141 16.968784
47.868233 113.83286 16.936457
38.818626 114.56481 16.956627
39.867344 114.56799 16.840267
46.440845 114.47696 16.859598
42.262779 114.61053 16.914482
42.262775 114.93729 16.865219
39.767807 115.30318 16.958935
43.699478 115.47357 16.980503
39.728962 115.72856 16.992357
46.611977 116.16945 16.999491
47.263584 116.05359 16.974491
39.828568 116.33736 16.893116
42.262779 116.34451 16.969225
47.868233 116.28201 16.936457
39.879322 117.31364 16.840174
40.851002 117.32414 16.861042
42.262779 117.35596 16.91544
46.188263 117.38584 16.9711
38.856003 117.74347 16.958973
39.761341 117.9666 16.958054
39.809097 118.76736 16.91361
42.262772 118.76222 16.99122
43.69968 118.62938 16.981485
46.619202 118.76208 16.993393
47.868233 118.73118 16.936457
39.715431 118.8349 16.991732
39.854042 118.84246 16.873667
42.262779 118.8602 16.946491
46.44215 119.23252 16.861719
42.262772 119.40506 16.868029
47.248226 119.78635 16.989374
39.891148 120.0328 16.841497
42.262768 120.0741 16.916399
39.75486 120.64319 16.958864
38.892544 120.87337 16.96011
40.851173 121.07915 16.860262
47.868233 121.18034 16.936457
39.834564 121.26611 16.893364
42.262772 121.27193 16.969284
46.626377 121.33455 16.98732
43.699642 121.73701 16.981268
39.701759 121.97347 16.992661
39.902901 122.72505 16.842804
42.262775 122.76534 16.917326
39.748318 123.33435 16.957983
39.837547 123.72138 16.89389
42.262775 123.73544 16.935932
47.868233 123.62949 16.936457
36.886547 123.80589 16.993597
38.928791 123.95766 16.962391
46.634628 123.88766 16.982262
46.443485 124.10727 16.86389
43.699841 124.79964 16.982231
40.851593 124.89819 16.858181
39.687935 125.14705 16.992039
48.532722 125.12866 16.832909
39.914505 125.39005 16.842707
42.262772 125.42934 16.916853
39.741791 126.03887 16.958794
39.809097 126.12842 16.91361
42.262772 126.12134 16.99122
47.868233 126.07865 16.936457
39.871929 126.21272 16.875212
42.262768 126.22845 16.947491
46.641666 126.42043 16.97628
38.964531 126.99632 16.964626
46.192806 127.40749 16.979013
43.700031 127.81718 16.98317
39.926003 128.02966 16.843985
42.262768 128.06802 16.917786
39.673962 128.35506 16.991426
39.809097 128.58209 16.91361
42.262772 128.57437 16.99122
47.868233 128.52782 16.936457
39.735199 128.75824 16.957878
39.877808 128.645 16.874664
40.851761 128.78003 16.857365
42.262783 128.66006 16.946753
46.648655 128.93372 16.970371
46.445427 129.104 16.867035
48.483467 129.26974 16.872822
47.868233 130.97697 16.936457
39.84639 131.05072 16.89465
42.262772 131.05374 16.969414
1.0815811 131.45148 16.937393
1.6941261 131.55522 16.808826
2.7577286 131.48193 16.973188
4.2296677 131.55522 16.80883
5.2239304 131.4545 16.882853
6.765213 131.55524 16.808823
9.1107445 131.45099 16.929796
9.3007507 131.55522 16.808826
11.257708 131.50922 16.871815
11.836662 131.55377 16.812244
13.328747 131.48956 16.89179
13.477127 131.52322 16.931046
14.14584 131.53793 16.955532
14.372162 131.55377 16.812227
16.87521 131.54973 16.851276
17.543558 131.53732 16.83223
18.70606 131.48187 16.954636
19.44347 131.55231 16.815649
20.451479 131.52492 16.868776
21.136192 131.51666 16.860304
21.60803 131.50177 16.816292
21.978811 131.55304 16.813932
23.51852 131.54645 16.969904
23.946659 131.52408 16.905867
24.470236 131.53549 16.851784
24.60257 131.51665 16.929413
26.957159 131.45341 16.803801
27.049982 131.55157 16.817345
28.219379 131.50183 16.894865
28.72975 131.51965 16.864449
28.952579 131.45244 16.871477
29.585232 131.55377 16.812223
31.654261 131.4875 16.913574
32.120602 131.55522 16.808832
33.050064 131.52145 16.908194
34.706654 131.5528 16.89184
34.927246 131.50055 16.870438
35.392155 131.48178 16.935219
35.453205 131.51866 16.82962
37.191967 131.54868 16.824165
37.439178 131.52179 16.953438
37.791519 131.54207 16.842785
39.728546 131.49185 16.957003
41.900948 131.52364 16.998611
42.280766 131.54881 16.929329
44.164104 131.53348 16.931227
44.798191 131.54939 16.822458
47.333748 131.55304 16.81395
49.132584 131.48367 16.934797
2.6175423 131.6315 16.933439
49.565353 131.60654 16.815157
51.363358 131.93304 16.879883
52.79475 131.81757 16.973824
53.266933 131.8924 16.968914
1.0415726 132.15984 16.991711
52.939102 132.09926 16.866875
53.730316 132.44821 16.98827
54.202892 132.51552 16.806644
-0.20125198 132.64365 16.856972
0.04863739 132.79353 16.906982
54.474796 132.60953 16.972445
57.829628 133.14096 16.875778
58.903709 133.05276 16.901543
59.755005 133.13733 16.879967
59.063705 133.3942 16.982927
-0.038455963 133.81418 16.921021
66.496452 134.33325 16.939512
66.093292 134.79565 16.975391
67.143806 134.60811 16.960821
0.048458099 134.91359 16.907005
68.645477 135.13873 16.860353
69.986549 135.02876 16.857597
70.094666 135.32227 16.980761
72.355049 135.382 16.829666
69.644974 135.44308 16.976397
71.109085 135.53363 16.920881
72.988174 135.53415 16.957191
70.94017 135.67722 16.958067
73.209152 135.8844 16.858994
74.37941 135.87932 16.878885
73.623024 136.16055 16.803976
76.754562 136.18353 16.807814
-0.038459778 136.26384 16.921021
74.204803 136.3349 16.831093
75.990814 136.22678 16.942307
75.715385 136.60449 16.942291
76.401657 136.66618 16.92021
79.098061 136.78845 16.899002
79.202118 136.67133 16.943581
77.042877 136.87086 16.927769
77.663498 136.93259 16.848927
79.177864 136.88791 16.863773
79.70578 136.91893 16.934158
-0.20625687 137.01242 16.831577
0.049480438 137.0239 16.906826
77.940994 137.04523 16.859339
80.958298 137.48639 16.897348
82.21199 137.62515 16.97471
84.448883 137.64394 16.909151
84.383163 138.25601 16.907965
85.194389 138.25198 16.98439
-0.038467407 138.72543 16.921022
86.801651 138.68547 16.813221
89.766464 138.74016 16.833817
89.856567 138.76955 16.939112
88.095924 138.88153 16.924807
88.3414 138.88655 16.82045
0.049304962 139.12497 16.906864
92.724869 139.28535 16.957933
91.985886 139.50941 16.980844
1.0542336 140.80884 16.812798
-0.039798737 141.19835 16.921244
0.050319672 141.21645 16.906704
-0.21037292 141.47563 16.805428
93.135254 141.87485 16.878067
92.242363 142.1225 16.995434
91.476471 142.75104 16.96999
0.050125122 143.29878 16.90674
92.231781 143.26675 16.828375
92.790321 143.53795 16.918676
-0.039810181 143.68401 16.92124
90.342178 143.90585 16.915359
89.229553 144.1965 16.80142
91.13913 144.04805 16.892515
87.419968 144.28157 16.958929
-0.51675797 144.50404 16.858936
87.514435 144.43738 16.882158
86.476425 144.68147 16.806612
84.742149 144.89044 16.887655
87.094788 144.8215 16.969107
84.482368 145.16367 16.984299
-0.73241425 145.20122 16.873375
0.05115509 145.37167 16.90657
83.542732 145.37723 16.990341
80.628334 145.54454 16.990227
81.939392 145.48763 16.816677
82.230545 145.5421 16.966335
80.12252 145.70546 16.950539
-0.039833069 146.18184 16.921242
74.842636 146.59471 16.813311
76.042908 146.4938 16.850628
-0.51344299 146.71815 16.980042
76.932938 146.71548 16.944401
73.166115 146.92831 16.903255
0.050971985 147.43553 16.906605
70.061752 147.50255 16.803665
71.88607 147.41043 16.996281
72.362648 147.44681 16.858332
73.019089 147.40329 16.89879
1.0301971 147.63873 16.863102
68.250404 148.09497 16.934303
68.94651 148.07457 16.920233
65.768333 148.33739 16.873606
68.412788 148.20697 16.944176
66.935524 148.43074 16.844666
-0.041175842 148.69124 16.921452
64.679489 148.7673 16.873446
62.903809 148.84428 16.919292
63.377453 148.85901 16.93819
63.707962 148.88115 16.918587
63.732773 149.18288 16.895067
0.051967621 149.49008 16.906429
60.873234 149.51172 16.857918
61.171623 149.42778 16.813635
61.78054 149.52469 16.858559
62.382771 149.40071 16.94018
61.044674 149.60806 16.951504
57.803421 150.02219 16.934155
55.027721 150.43845 16.880573
55.547138 150.48663 16.865992
56.550323 150.51216 16.948875
53.301651 150.71136 16.939777
53.453415 150.66928 16.849731
-0.11937332 150.90388 16.815348
53.399658 150.86215 16.913578
54.902348 150.8501 16.872826
50.712769 151.14871 16.808455
51.594296 151.08533 16.996004
0.8898201 151.46358 16.995754
3.1470604 151.5574 16.988216
6.05299 151.44121 16.897045
7.1874886 151.47479 16.981598
8.0392609 151.47049 16.999889
9.9904366 151.47913 16.840328
10.261257 151.47383 16.941456
10.745713 151.5119 16.974373
11.530149 151.48752 16.812309
12.278425 151.5197 16.953577
12.938911 151.50842 16.965057
13.300402 151.474 16.901745
14.119984 151.48521 16.951145
14.383398 151.50159 16.980049
16.304449 151.47415 16.862492
17.86883 151.46983 16.924805
18.952988 151.47836 16.905052
19.163258 151.49359 16.838886
19.273077 151.47322 16.823719
20.174763 151.46626 16.88279
20.224018 151.50938 16.859102
20.9725 151.49072 16.8699
22.2243 151.50581 16.881659
22.586102 151.52574 16.837132
23.18364 151.50104 16.950207
24.170044 151.44081 16.852467
24.360462 151.48105 16.908031
25.293581 151.47095 16.855091
27.389183 151.46814 16.85173
28.80867 151.43974 16.993612
29.173283 151.44147 16.817911
30.931669 151.49081 16.929832
31.650356 151.44028 16.921093
32.35157 151.51846 16.994152
34.301262 151.52364 16.955261
35.58448 151.47839 16.88372
36.399097 151.44037 16.81431
36.674469 151.49919 16.918295
38.541565 151.52367 16.877985
38.666454 151.51173 16.906244
39.030907 151.54126 16.800201
41.443077 151.49429 16.993937
42.091793 151.49811 16.840504
42.430508 151.49551 16.84132
43.083538 151.49515 16.994129
45.91671 151.51669 16.893276
47.852859 151.50079 16.919569
48.126446 151.44037 16.814302
48.940628 151.47742 16.882996
42.766308 2.245842 17.06473
44.605602 2.3658447 17.050703
40.766468 2.4533157 17.090685
42.075439 2.483284 17.194178
46.27581 2.8550262 17.05002
46.525356 2.8399277 17.047253
41.74284 3.17836 17.035381
47.470161 3.3609619 17.086813
39.361938 3.4894714 17.051769
42.262775 3.7983551 17.054333
46.180759 3.7460709 17.067015
40.458115 3.8482742 17.008837
42.262764 3.9634323 17.012033
44.212936 3.9361649 17.042431
47.4468 4.510582 17.091124
38.366962 4.7007599 17.066517
37.8535 4.9457855 17.18573
43.740475 4.9909897 17.176834
47.380016 4.900383 17.096016
40.209213 5.5294342 17.034718
42.262787 5.5108566 17.105637
42.262772 5.9321671 17.022272
44.232735 5.9637032 17.112768
38.898582 6.0566254 17.175983
40.032848 6.0805511 17.003891
42.262787 6.081604 17.071257
44.196365 6.006485 17.018063
46.273335 6.0137634 17.157925
42.262768 6.3538208 17.142773
40.440193 6.4194489 17.0839
44.229481 6.6949081 17.066065
40.666302 6.871376 17.096779
43.740768 7.1119003 17.178204
47.33157 7.0935822 17.126047
37.852554 7.4239807 17.184256
39.380009 8.0208893 17.152124
44.230339 8.0092239 17.139524
38.395748 8.2849045 17.071417
44.24054 8.2149811 17.105297
46.271832 8.2646179 17.160336
38.908352 8.7956543 17.184351
46.780155 8.7848511 17.135714
39.901215 9.3214417 17.037451
47.281506 9.3178787 17.156307
44.1964 9.5596924 17.018074
44.229446 9.4164047 17.06599
37.850651 9.9016876 17.181274
44.230446 10.071877 17.139938
39.768642 10.285591 17.076359
40.611343 10.304489 17.067741
44.240589 10.470673 17.105415
46.269161 10.520607 17.161655
42.098248 10.92099 17.068422
38.916019 11.523842 17.185833
43.743191 11.428619 17.189846
47.231686 11.572754 17.187176
40.182457 11.694336 17.047409
42.262772 11.677643 17.10564
38.423767 11.834091 17.07457
40.401413 11.890656 17.088711
42.262768 11.827515 17.143555
44.229988 12.139923 17.103117
37.849705 12.379959 17.179798
40.017365 12.491417 17.010893
42.262764 12.490967 17.07271
44.24062 12.731895 17.105551
46.267666 12.782227 17.164074
44.196407 13.080048 17.018124
42.262764 13.290016 17.020546
40.173302 13.787598 17.043427
42.262779 13.769623 17.104382
43.742485 13.633217 17.186403
46.802261 13.743622 17.117161
38.923683 14.244637 17.187267
44.230663 14.241531 17.140738
40.012115 14.648277 17.008701
40.381313 14.721954 17.084846
42.262779 14.651054 17.106476
37.847813 14.857765 17.176819
44.235245 14.91819 17.086529
48.345699 14.942924 17.196884
46.266155 15.049278 17.166498
38.451534 15.350311 17.077707
47.08326 15.291527 17.015961
42.262764 15.742805 17.020546
40.164078 15.898979 17.040655
42.262783 15.880035 17.103119
43.741543 15.866554 17.181927
44.230782 16.348816 17.141148
44.196415 16.567947 17.018164
38.930798 16.957291 17.187027
40.006828 16.815239 17.005003
42.262783 16.813789 17.070126
37.84687 17.336105 17.175344
44.241123 17.271271 17.107386
46.263466 17.321541 17.167831
42.262775 17.543587 17.140985
44.229382 17.537117 17.065723
47.98098 17.594269 17.05331
40.360771 17.615059 17.080902
48.385292 17.932739 17.169252
40.154789 18.02906 17.037849
42.262764 18.102352 17.061207
43.74102 18.127411 17.17939
47.04393 18.289009 17.043573
44.230896 18.471313 17.141577
46.821575 18.605652 17.097204
38.479042 18.834038 17.080837
40.001537 18.992371 17.002796
42.262768 18.990402 17.068098
44.241165 19.549232 17.107506
46.261948 19.599464 17.17028
38.938419 19.663414 17.188473
37.845909 19.814484 17.173853
40.145416 20.178093 17.035028
42.262779 20.157097 17.100586
44.196888 20.025284 17.019873
47.747253 20.109833 17.171364
44.229351 20.229523 17.065632
40.339756 20.574501 17.07482
42.262772 20.496078 17.139671
43.740692 20.41687 17.177839
42.262764 20.648399 17.020546
44.231018 20.609177 17.141983
39.600319 20.911919 17.198709
48.422905 20.905846 17.142088
42.262764 21.1772 17.067556
47.003086 21.356895 17.071522
44.241196 21.832832 17.107643
46.260429 21.882851 17.172726
37.843071 22.291985 17.169397
38.506794 22.287056 17.085575
38.945503 22.361496 17.188234
40.135956 22.346344 17.032181
42.262772 22.324272 17.099289
43.740147 22.736755 17.175232
44.231129 22.762573 17.142401
44.229321 22.914719 17.065535
42.262768 23.100754 17.018826
39.572964 23.243401 17.197245
42.262775 23.374367 17.065487
46.841702 23.379623 17.078499
42.262772 23.515221 17.137625
44.196888 23.449631 17.019894
40.318237 23.602646 17.066525
48.46207 23.86441 17.114719
44.241245 24.12207 17.107773
46.257713 24.171577 17.174046
40.126381 24.534927 17.026752
42.262779 24.511299 17.096714
46.962486 24.495087 17.100727
37.835506 24.76738 17.157505
44.231255 24.931671 17.142815
38.95256 25.05233 17.187988
43.73959 25.087006 17.172604
42.262772 25.567482 17.041016
44.229298 25.592751 17.06546
38.533798 25.707031 17.088594
39.545017 25.606155 17.194759
44.241287 26.416977 17.107925
46.253815 26.465675 17.174269
40.116722 26.743286 17.021296
40.296268 26.695808 17.060833
42.262779 26.660896 17.114765
44.196915 26.84288 17.019917
48.501053 26.807518 17.087509
44.23138 27.116638 17.143259
37.834545 27.245979 17.156031
43.73904 27.468239 17.169945
38.959595 27.735954 17.187729
42.262775 27.799713 17.064375
46.353809 27.659142 17.198158
46.919716 27.709587 17.130018
39.516697 28.000191 17.192228
42.262772 28.005966 17.017107
46.860287 28.064087 17.059259
44.229263 28.263641 17.065363
44.241318 28.717567 17.108051
46.251095 28.765488 17.175615
40.106983 28.971245 17.01705
42.262775 28.943886 17.094053
38.560547 29.095848 17.091618
37.640217 29.309845 17.189302
44.231491 29.317673 17.143673
37.835506 29.725418 17.157505
42.262768 29.764496 17.129866
48.538044 29.73436 17.060778
40.273811 29.859642 17.055027
43.738262 29.881752 17.166214
42.262772 30.028206 17.062294
44.196915 30.205452 17.019964
38.966621 30.412399 17.187489
39.488243 30.425423 17.190712
42.262787 30.458389 17.015373
44.229248 30.927429 17.065287
46.364445 30.989258 17.191446
42.262783 31.190384 17.092724
44.241356 31.023865 17.108177
46.247169 31.07074 17.175842
46.876526 31.000473 17.16032
40.097168 31.219513 17.012775
44.231239 31.535263 17.14278
37.408573 31.915009 17.0986
37.835506 32.204437 17.157505
42.262772 32.267296 17.060196
43.737907 32.326149 17.164507
38.587555 32.455177 17.096233
47.819172 32.5019 17.177166
46.879707 32.665298 17.041245
48.576611 32.64695 17.033846
39.459179 32.883873 17.188114
42.262772 32.953861 17.069929
38.974148 33.08239 17.188923
40.2509 33.090149 17.054071
37.171108 33.209541 17.003933
44.241394 33.335892 17.108301
46.244427 33.381737 17.177195
40.087269 33.487869 17.00975
42.262779 33.457886 17.090067
44.196922 33.537735 17.019979
44.229218 33.584129 17.065216
44.230991 33.769302 17.141865
46.373676 34.288742 17.18371
46.832283 34.371441 17.191362
42.262775 34.517082 17.058088
37.835506 34.683449 17.157505
43.738197 34.80125 17.165916
39.429939 35.374794 17.186543
42.262768 35.363327 17.011919
48.613224 35.543552 17.007368
38.613827 35.782852 17.099194
38.981121 35.744541 17.188671
40.077301 35.776066 17.009315
42.262772 35.746212 17.087379
44.241436 35.653667 17.108444
46.240498 35.698242 17.177414
37.205624 36.199055 17.014858
44.230728 36.019947 17.140951
40.227432 36.39595 17.053108
42.262772 36.304745 17.122471
44.229202 36.233761 17.065123
42.262768 36.777615 17.055977
44.197369 36.841408 17.021645
37.836437 37.162834 17.158997
46.897636 37.181782 17.022697
43.73827 37.31049 17.166294
47.876472 37.349113 17.130356
46.384113 37.560486 17.177113
39.400074 37.900291 17.183886
42.262772 37.815842 17.010201
44.24147 37.977215 17.108593
40.067223 38.085331 17.008869
42.262779 38.055641 17.084681
46.237736 38.0205 17.178766
38.988098 38.399609 17.188431
44.230461 38.287395 17.140032
44.229649 38.877014 17.066711
37.237965 39.168972 17.022755
38.639847 39.080585 17.102127
42.262775 39.049149 17.05229
37.836437 39.641838 17.158997
40.203445 39.778778 17.052843
42.262775 39.692722 17.11718
43.738579 39.853119 17.167732
44.197384 40.11433 17.02166
42.262772 40.327248 17.044359
44.241516 40.306557 17.108721
46.23378 40.348331 17.178982
39.370056 40.459599 17.182266
40.057087 40.415962 17.008413
44.229839 40.572239 17.137741
46.394451 40.803604 17.170591
38.995548 41.048237 17.18985
42.262775 41.331448 17.05015
44.229637 41.512604 17.06662
46.916374 41.619392 17.005293
37.26915 42.120518 17.029114
37.836437 42.120838 17.158997
47.932652 42.099293 17.084538
38.666634 42.351192 17.10825
43.738667 42.431297 17.168137
40.046833 42.768787 17.006636
42.262768 42.73019 17.039938
44.240658 42.641605 17.105679
46.23101 42.681931 17.180342
44.229572 42.87389 17.136791
39.339363 43.054928 17.179541
42.262768 43.162777 17.111027
40.178864 43.243324 17.051834
44.197395 43.35817 17.021669
39.002995 43.689796 17.191309
42.262768 43.62492 17.046429
44.229584 44.141224 17.066544
46.403439 44.017319 17.163074
37.837383 44.600163 17.160486
44.24025 44.982582 17.104223
37.300156 45.054813 17.035425
40.036469 45.14304 17.006172
42.262783 45.115215 17.072458
43.738754 45.045033 17.168526
44.22892 45.19334 17.13448
46.227039 45.021175 17.180578
46.819851 45.19339 17.001625
38.692661 45.591393 17.112738
39.308235 45.686272 17.176785
42.262764 45.92968 17.041153
39.009899 46.323711 17.191029
44.197399 46.57333 17.021688
40.153687 46.791553 17.050808
42.262764 46.708626 17.11071
44.229107 46.762302 17.064747
47.987701 46.755276 17.039576
37.837383 47.079147 17.160486
44.23983 47.329453 17.102755
46.224251 47.366207 17.181942
46.413609 47.204319 17.156651
40.026047 47.53957 17.005703
42.262779 47.512123 17.06963
44.228271 47.530399 17.132145
46.811569 47.523098 17.0056
43.739059 47.69426 17.170013
37.330978 47.972019 17.041706
39.276691 48.354382 17.173988
42.262772 48.245441 17.037397
38.718494 48.802769 17.117149
39.016296 48.950085 17.1891
44.228596 49.376507 17.063019
37.837383 49.558136 17.160486
44.196507 49.757893 17.018538
44.238968 49.682205 17.099703
46.220261 49.716942 17.182177
40.015491 49.959267 17.003893
42.262779 49.930477 17.069475
44.22723 49.885715 17.128416
46.804333 49.869778 17.010542
42.262783 50.339016 17.111898
43.739151 50.381306 17.170433
46.423698 50.363811 17.150286
40.127899 50.426571 17.049751
42.262779 50.572021 17.036764
37.362591 50.873169 17.049435
39.244686 51.060043 17.171154
39.022667 51.569523 17.187183
38.743607 51.984604 17.119949
44.227146 51.982727 17.057907
37.838345 52.037399 17.161961
44.23764 52.040913 17.095037
46.217464 52.073479 17.183556
42.262768 52.371136 17.070631
44.226944 52.258137 17.12742
46.797039 52.234074 17.015488
40.004845 52.401306 17.003407
42.262764 52.909649 17.037708
44.196087 52.91573 17.016975
43.739227 53.106194 17.170856
46.433701 53.496132 17.143978
37.393044 53.75663 17.055668
39.212246 53.804043 17.168285
39.029011 54.182076 17.185259
40.101479 54.151581 17.04866
42.262779 54.059177 17.113117
37.838345 54.516376 17.161961
44.231705 54.494171 17.074015
46.212231 54.435806 17.182636
44.227062 54.648254 17.1278
46.789688 54.61615 17.0205
39.99411 54.86657 17.002913
42.262775 54.835594 17.070461
38.768486 55.138443 17.122732
42.262775 55.258862 17.037075
47.591846 55.424911 17.006945
43.739559 55.868858 17.172388
44.194778 56.043842 17.012257
39.179337 56.587223 17.165361
37.423332 56.623425 17.061817
39.035336 56.787754 17.183325
44.237255 56.77626 17.09367
46.442348 56.600563 17.136692
37.838345 56.995346 17.161961
46.20821 56.80397 17.182878
48.54335 56.985023 17.119423
44.226631 57.116364 17.09116
46.78228 57.016232 17.025558
39.98325 57.356037 17.001068
42.262775 57.323605 17.070293
42.262779 57.619537 17.036442
40.074383 57.969959 17.047554
42.262779 57.872456 17.114374
47.571388 57.893772 17.021242
38.792191 58.262474 17.122292
43.739651 58.671833 17.172825
44.193897 59.145966 17.009182
44.237301 59.152878 17.093784
46.206604 59.177921 17.185383
39.040661 59.385571 17.178057
37.453445 59.473732 17.067963
37.839287 59.474552 17.163452
39.145435 59.412189 17.160168
44.227665 59.483284 17.129997
46.774818 59.434525 17.030628
44.225677 59.763969 17.052652
46.452198 59.679615 17.130491
39.972298 59.868778 17.000576
42.262779 59.91349 17.053749
47.550762 60.385143 17.035662
48.190578 60.592884 17.008724
38.81572 61.359344 17.121876
43.739979 61.514206 17.174402
44.237339 61.535492 17.093918
46.203773 61.557735 17.186764
42.262768 61.782436 17.11565
37.839287 61.953514 17.163452
39.046947 61.977631 17.176134
40.046623 61.884109 17.047197
44.227783 61.929127 17.130398
46.767303 61.871223 17.035759
37.483391 62.307663 17.074043
39.111557 62.276291 17.157152
42.262779 62.373131 17.054031
44.193916 62.223427 17.009262
44.225658 62.344673 17.05258
39.961246 62.405788 17.000055
46.460709 62.731506 17.123316
47.529915 62.899342 17.050211
48.137932 63.155579 17.042753
44.237347 63.924122 17.094032
46.202156 63.943359 17.189289
43.740082 64.398651 17.174871
44.22789 64.39399 17.130804
46.759727 64.326553 17.040911
37.840218 64.432678 17.164942
38.838081 64.427322 17.118336
39.053734 64.563393 17.175909
42.262775 64.770508 17.037693
42.262787 64.931679 17.071146
44.225639 64.918617 17.052504
37.513145 65.125374 17.080111
39.07745 65.181244 17.155222
37.227425 65.331062 17.015274
44.193947 65.274361 17.009333
47.508884 65.436668 17.064898
42.262772 65.794022 17.116165
46.469151 65.757629 17.116192
48.086174 65.74295 17.077072
40.018127 65.900055 17.046043
44.237385 66.318787 17.094149
46.19931 66.334915 17.190668
37.840218 66.911621 17.164942
44.227997 66.878098 17.131207
46.752087 66.800713 17.046116
39.060516 67.142365 17.175686
42.262779 67.177818 17.037062
43.740173 67.325195 17.175356
38.861191 67.470947 17.117939
42.262783 67.517334 17.070972
44.22562 67.48584 17.05245
37.54369 67.927765 17.087587
47.487652 67.997452 17.079735
39.042843 68.128838 17.153267
44.19397 68.299126 17.009405
48.032497 68.356728 17.111771
44.237423 68.719521 17.094265
46.197678 68.7323 17.193209
46.477509 68.758308 17.109127
37.29884 68.864571 17.029472
37.840218 69.390564 17.164942
44.228123 69.381668 17.131605
46.744408 69.293922 17.051353
42.262779 69.597 17.036425
39.067768 69.715019 17.177105
42.262772 69.908737 17.11751
39.988911 70.019356 17.045662
42.262779 70.128296 17.070814
44.225597 70.046349 17.052372
43.740269 70.294769 17.175829
38.884567 70.489441 17.11911
47.468903 70.58065 17.09565
37.573105 70.71344 17.093613
47.981098 70.995209 17.146751
39.007999 71.119041 17.152437
44.237461 71.126335 17.094395
46.19482 71.135681 17.194614
44.193977 71.29805 17.00948
46.485809 71.733887 17.102146
37.840218 71.869507 17.164942
44.228241 71.904922 17.132017
46.737774 71.80584 17.057585
42.262772 72.027809 17.037386
37.369324 72.351685 17.043491
39.074509 72.280472 17.176878
42.262772 72.764214 17.072031
44.225574 72.600189 17.052309
47.448647 73.188583 17.111244
43.740368 73.308319 17.176308
37.602371 73.483284 17.099552
38.907745 73.482086 17.120258
44.237488 73.539261 17.094513
46.191956 73.545029 17.196003
47.927773 73.660858 17.182098
38.972881 74.152763 17.152756
42.262772 74.133179 17.118073
37.840218 74.34845 17.164942
39.958923 74.24733 17.045269
44.194 74.271477 17.009567
46.731106 74.337212 17.063883
42.262783 74.471008 17.036732
44.22876 74.447502 17.133867
46.49403 74.684647 17.095198
39.08123 74.839218 17.176651
44.225571 75.147369 17.05225
42.262783 75.426926 17.071859
37.438046 75.792046 17.056084
44.237522 75.958313 17.094635
46.190304 75.960213 17.198565
47.428188 75.820938 17.12698
37.631462 76.237465 17.105484
43.740479 76.366821 17.176807
48.135509 76.373314 17.071749
38.930733 76.449234 17.12141
37.840218 76.827393 17.164942
42.262779 76.926361 17.036087
46.724377 76.88829 17.070198
44.22887 77.010834 17.134308
38.937 77.232994 17.151897
39.087936 77.391281 17.176422
44.194023 77.219704 17.009623
44.225559 77.687935 17.052166
46.502201 77.610916 17.088316
42.262783 78.116096 17.071682
44.237568 78.38353 17.094742
46.187431 78.381516 17.199961
39.928135 78.587006 17.045696
42.262768 78.471832 17.117813
47.408882 78.477318 17.143366
37.660393 78.976097 17.111378
37.506695 79.189056 17.069738
37.840218 79.306343 17.164942
38.953049 79.390259 17.121
42.262775 79.393547 17.037058
43.740585 79.471313 17.177301
44.228981 79.594574 17.134727
46.717606 79.459282 17.076595
39.094604 79.936676 17.176182
44.194054 80.143066 17.009687
38.900547 80.359787 17.151037
44.225525 80.221893 17.052099
46.115505 80.31163 17.19949
48.052834 80.21006 17.137835
46.510284 80.512985 17.081461
42.262787 80.832115 17.071508
44.237602 80.814911 17.094873
47.991234 80.903687 17.169416
47.388046 81.159523 17.159412
37.689156 81.699318 17.117231
37.840218 81.785286 17.164942
42.262764 81.873459 17.036381
44.229107 82.198959 17.13516
46.709621 82.051094 17.082062
38.975647 82.307373 17.122128
37.573635 82.54113 17.08201
39.101772 82.475815 17.177616
43.740681 82.622803 17.17782
44.225502 82.749275 17.052025
42.262768 82.926651 17.118391
46.117283 82.831963 17.196898
39.896503 83.045563 17.045296
44.193634 83.04097 17.008221
44.237637 83.25251 17.09499
46.518307 83.391174 17.074694
38.863541 83.534187 17.150167
42.262787 83.575386 17.071333
47.367016 83.867203 17.175583
37.840218 84.264229 17.164942
42.262768 84.365356 17.037373
37.71777 84.407257 17.123051
46.702736 84.662674 17.088522
44.229233 84.824249 17.135603
38.998066 85.199928 17.123241
39.108425 85.007965 17.177376
44.225487 85.270111 17.051966
46.120312 85.346306 17.195461
44.237667 85.69632 17.095108
37.640568 85.851486 17.095291
43.740799 85.822403 17.178335
44.193661 85.915565 17.008305
37.42831 86.16082 17.00444
42.262783 86.346329 17.071167
46.526268 86.245758 17.06797
37.840218 86.743172 17.164942
38.826252 86.756195 17.150475
47.345783 86.600708 17.19195
42.262775 86.870178 17.036732
37.746208 87.100037 17.128838
46.695808 87.294876 17.09507
39.115047 87.533531 17.177162
42.262764 87.503784 17.118977
44.229343 87.470688 17.13604
39.864037 87.62516 17.045744
44.22546 87.784431 17.051901
46.123322 87.854309 17.194042
39.020271 88.068245 17.124367
44.238163 88.146187 17.096865
44.193676 88.76622 17.008408
37.706631 89.119766 17.10844
42.262779 89.144508 17.072422
43.740906 89.071213 17.178852
46.535362 89.077881 17.062325
37.840218 89.222115 17.164942
42.262779 89.387619 17.036066
37.774502 89.777802 17.134602
46.688805 89.947983 17.101641
38.787289 90.032547 17.145966
39.121674 90.052544 17.176933
44.229485 90.138535 17.136475
44.22546 90.292252 17.051834
46.125076 90.355659 17.191452
44.237732 90.60273 17.095356
37.556408 90.836906 17.030367
39.041843 90.911781 17.123959
44.193703 91.593216 17.008463
37.840218 91.701065 17.164942
42.262779 91.944672 17.054646
46.543175 91.886108 17.055717
37.771034 92.345642 17.120234
39.83062 92.333717 17.045326
42.262772 92.208305 17.119587
43.741032 92.370361 17.179386
37.80262 92.440659 17.140343
39.128254 92.565025 17.176706
44.22543 92.793594 17.051767
46.681728 92.622231 17.108278
44.229607 92.828049 17.136913
46.128071 92.851044 17.190037
44.238232 93.065132 17.097116
38.747417 93.361237 17.140184
39.063705 93.732529 17.125044
37.840218 94.180008 17.164942
44.193729 94.396866 17.008545
42.262775 94.460228 17.036377
46.55093 94.671593 17.049156
42.262775 94.828537 17.072079
37.830589 95.088737 17.146042
39.134834 95.070999 17.176456
37.681385 95.399261 17.055676
44.225414 95.28849 17.051704
46.129822 95.339874 17.187454
46.674625 95.317848 17.114971
37.835457 95.532127 17.133049
44.233772 95.536911 17.116491
43.741135 95.721046 17.179928
39.085369 96.529938 17.126146
37.840218 96.658951 17.164942
38.706898 96.742386 17.134296
39.796299 97.173737 17.045774
42.262768 97.03009 17.078398
44.193748 97.177444 17.008598
39.141891 97.570778 17.177885
46.55864 97.434616 17.042641
37.858418 97.72216 17.151697
42.262772 97.714424 17.071915
44.225388 97.776962 17.051624
46.132809 97.822746 17.186056
44.238312 98.009377 17.097359
46.667473 98.035118 17.121714
44.230282 98.272362 17.139324
37.898266 98.677803 17.144547
37.840218 99.137894 17.164942
43.74123 99.124474 17.180485
39.106865 99.304283 17.127224
42.262768 99.584373 17.036699
37.802788 99.850517 17.07951
44.193756 99.935249 17.008678
38.66576 100.17722 17.128323
39.148426 100.06381 17.17765
46.566277 100.17544 17.03619
37.886074 100.34104 17.157326
44.225368 100.25904 17.051569
46.13578 100.29939 17.184645
44.237869 100.49132 17.095848
42.262775 100.63018 17.071743
46.660236 100.77431 17.128508
44.230408 101.02847 17.139782
37.900658 101.70117 17.160995
39.128185 102.05585 17.128281
39.76099 102.15234 17.046242
42.262764 102.09308 17.078888
39.154957 102.55042 17.177427
43.741364 102.5819 17.18104
44.193771 102.67056 17.008759
44.225361 102.73475 17.051497
46.137512 102.76958 17.182083
37.913593 102.94552 17.162937
44.23838 102.9791 17.097612
46.573853 102.89433 17.029789
47.140194 103.22953 17.191261
42.262779 103.57627 17.071552
46.652954 103.53566 17.135361
38.623951 103.66705 17.12225
37.543602 103.8286 17.184294
44.230522 103.80733 17.140244
37.881039 104.14665 17.134289
39.148876 104.78419 17.127882
42.262768 104.76141 17.035345
38.023155 104.85494 17.169418
39.161472 105.03061 17.177197
44.19379 105.38364 17.008835
44.225349 105.2041 17.051426
46.14048 105.23386 17.180685
37.940948 105.53571 17.168518
44.237957 105.47388 17.096088
46.582535 105.59225 17.024414
43.74147 106.09463 17.181608
47.161358 106.04402 17.174164
46.645622 106.31945 17.142271
37.840218 106.57472 17.164942
42.262779 106.55217 17.072865
44.230675 106.60922 17.14072
42.262775 107.13857 17.12331
38.58147 107.21319 17.116074
39.724636 107.27718 17.045824
42.26276 107.36924 17.036343
39.168911 107.49774 17.152952
44.225323 107.66714 17.051369
46.143429 107.69197 17.179298
38.08445 107.88676 17.181612
44.238445 107.9745 17.097874
37.967255 108.11121 17.172663
44.193813 108.07475 17.008907
46.589981 108.26804 17.018112
38.038719 108.44389 17.128023
47.183701 108.83237 17.15774
37.840218 109.05367 17.164942
46.637012 109.12682 17.148222
42.262787 109.56033 17.072678
44.230797 109.43445 17.141195
43.741596 109.66398 17.182186
39.174435 109.97189 17.176739
42.262756 109.99104 17.035685
39.190655 110.17598 17.12999
44.225304 110.12387 17.051308
46.145145 110.14375 17.176744
44.238018 110.48224 17.096327
37.994305 110.67316 17.178177
44.19384 110.74419 17.008984
38.144981 110.88167 17.193672
38.5383 110.81701 17.109818
46.597385 110.92267 17.011847
37.906979 111.00447 17.030714
37.840218 111.53262 17.164942
47.204445 111.59329 17.140984
46.629547 111.95635 17.155231
44.23093 112.28329 17.141655
38.15229 112.59039 17.151028
39.181404 112.43322 17.178154
39.687229 112.55148 17.046307
42.262779 112.40805 17.124935
44.225269 112.57433 17.051243
46.148098 112.58963 17.175367
42.262772 112.613 17.054592
39.211273 112.83921 17.131037
44.23851 112.99578 17.098122
37.244705 113.39899 17.120205
38.021225 113.22118 17.183676
43.741982 113.29002 17.184034
44.193459 113.39149 17.007576
46.604729 113.5564 17.00565
37.840218 114.01156 17.164942
47.226372 114.3288 17.12487
38.494423 114.47997 17.103424
39.187843 114.88803 17.177917
46.622009 114.80918 17.162308
44.228161 115.08729 17.096664
46.151031 115.02941 17.173975
42.262772 115.27463 17.036007
39.231327 115.48035 17.130615
44.238094 115.51656 17.096588
38.048008 115.75535 17.189116
42.262779 115.6725 17.072317
44.19347 116.01833 17.007664
37.840218 116.4905 17.164942
38.263828 116.64309 17.174309
43.742107 116.97681 17.184633
47.248074 117.03843 17.108912
39.194263 117.33656 17.177689
44.225235 117.4565 17.051117
46.152718 117.46297 17.171452
46.61441 117.68558 17.169447
39.64867 117.98531 17.045868
42.26276 117.88703 17.080513
39.251625 118.10102 17.131647
44.234894 118.04808 17.120499
38.073734 118.27538 17.193165
38.449837 118.20346 17.096947
42.26276 118.77753 17.072136
44.193504 118.62426 17.00774
37.840218 118.96944 17.164942
38.156704 119.09348 17.079861
37.716736 119.25865 17.1973
39.200684 119.77884 17.177479
47.269577 119.72256 17.093102
44.225235 119.88828 17.051041
46.155647 119.89066 17.170073
44.238163 120.57708 17.096844
46.606766 120.58583 17.176632
38.10022 120.78223 17.198574
38.372288 120.60264 17.196266
39.271767 120.70078 17.132675
42.262779 120.61303 17.036316
43.742237 120.72449 17.185261
44.231335 120.9745 17.14315
37.324013 121.38721 17.187479
44.19352 121.20951 17.007816
37.840218 121.44839 17.164942
37.687965 121.99617 17.191675
38.404476 121.98906 17.090372
42.262772 121.9159 17.071957
39.207062 122.21487 17.177235
44.225204 122.31387 17.050983
46.157333 122.31221 17.167566
47.29089 122.38155 17.077435
44.238663 123.11681 17.098623
39.291748 123.27985 17.133686
42.262764 123.30338 17.035648
39.60899 123.58247 17.046364
42.262764 123.4287 17.127396
46.599052 123.51025 17.183886
47.232597 123.5813 17.004559
44.19355 123.77433 17.007881
37.840218 123.92734 17.164942
44.231907 123.91988 17.145174
43.742374 124.53464 17.185871
37.66 124.74851 17.187418
39.213451 124.64471 17.17701
44.225189 124.73331 17.050907
46.160244 124.72788 17.166189
42.262768 125.08701 17.073318
47.311993 125.01575 17.061932
44.238235 125.66399 17.097097
38.358368 125.83832 17.083672
39.311577 125.83853 17.134703
42.262772 126.00776 17.034977
44.193573 126.31896 17.007948
37.170593 126.46571 17.136894
37.840218 126.40628 17.164942
46.591267 126.45914 17.191204
44.232052 126.89136 17.145672
39.220291 127.06846 17.178406
44.225174 127.14661 17.050856
46.163155 127.13759 17.164841
37.630909 127.51722 17.181711
47.216702 127.44003 17.019978
47.332912 127.6255 17.046553
39.331249 128.37701 17.135704
42.262772 128.29367 17.073122
44.238731 128.21695 17.098894
43.742771 128.40727 17.187832
42.262775 128.72559 17.035976
37.840218 128.88522 17.164942
44.193577 128.84366 17.008039
42.26276 129.19479 17.128199
37.411621 129.23918 17.194504
39.568047 129.35411 17.045918
39.226639 129.48593 17.178165
44.225151 129.5538 17.050789
46.164825 129.54124 17.162334
46.583416 129.4328 17.198574
38.31118 129.75433 17.075546
44.232193 129.88831 17.146191
37.601662 130.30171 17.175968
44.238304 130.7775 17.097355
37.840218 131.36417 17.164942
47.200565 131.36415 17.035643
0.62854385 131.53885 17.068298
2.4524422 131.52394 17.114542
3.2576408 131.55072 17.059263
4.1526184 131.55313 17.136726
5.252758 131.51863 17.000786
5.499794 131.49327 17.01985
5.8326035 131.54004 17.066742
6.3311081 131.53171 17.111282
6.861412 131.55264 17.082417
7.0671959 131.45085 17.19281
8.2628059 131.54057 17.168819
8.4351654 131.53767 17.069839
9.110302 131.53987 17.03491
11.070686 131.51128 17.1105
11.892046 131.53435 17.083008
13.639431 131.53766 17.069847
14.561251 131.53864 17.032352
14.628599 131.51364 17.134987
15.541832 131.45163 17.158524
16.241385 131.53885 17.068308
17.768427 131.54257 17.189194
18.660313 131.54236 17.04318
18.843515 131.53885 17.068302
19.367828 131.51791 17.046965
19.694164 131.54254 17.003132
20.659971 131.45276 17.065701
21.445541 131.54004 17.066742
22.691847 131.52728 17.026806
24.038368 131.53333 17.128082
26.649828 131.54004 17.066744
28.79538 131.52469 17.141132
29.252064 131.53885 17.068295
30.114094 131.52245 17.151104
30.248871 131.54823 17.058258
