ply
format ascii 1.0
comment PCL generated
element vertex 1072
property float x
property float y
property float z
property uchar red
property uchar green
property uchar blue
property uchar alpha
element camera 0
property float view_px
property float view_py
property float view_pz
property float x_axisx
property float x_axisy
property float x_axisz
property float y_axisx
property float y_axisy
property float y_axisz
property float z_axisx
property float z_axisy
property float z_axisz
property float focal
property float scalex
property float scaley
property float centerx
property float centery
property int viewportx
property int viewporty
property float k1
property float k2
end_header
0.35100001 -0.18252 1.1340001 255 127 0 255
0.35316002 -0.18252 1.1340001 255 127 0 255
0.35532004 -0.18252 1.1340001 255 127 0 255
0.35748002 -0.18252 1.1340001 255 127 0 255
0.35964 -0.18252 1.1340001 255 127 0 255
0.36180001 -0.18252 1.1340001 255 127 0 255
0.36396003 -0.18252 1.1340001 255 127 0 255
0.36612001 -0.18252 1.1340001 255 127 0 255
0.36828002 -0.18252 1.1340001 255 127 0 255
0.37044004 -0.18252 1.1340001 255 127 0 255
0.37260002 -0.18252 1.1340001 255 127 0 255
0.37476 -0.18252 1.1340001 255 127 0 255
0.37692001 -0.18252 1.1340001 255 127 0 255
0.37908003 -0.18252 1.1340001 255 127 0 255
0.38124004 -0.18252 1.1340001 255 127 0 255
0.38339999 -0.18252 1.1340001 255 127 0 255
0.38556001 -0.18252 1.1340001 255 127 0 255
0.38772002 -0.18252 1.1340001 255 127 0 255
0.38988003 -0.18252 1.1340001 255 127 0 255
0.39204001 -0.18252 1.1340001 255 127 0 255
0.39420003 -0.18252 1.1340001 255 127 0 255
0.39636001 -0.18252 1.1340001 255 127 0 255
0.39852002 -0.18252 1.1340001 255 127 0 255
0.40068001 -0.18252 1.1340001 255 127 0 255
0.40426093 -0.18316381 1.138 255 127 0 255
0.40642858 -0.18316381 1.138 255 127 0 255
0.40859619 -0.18316381 1.138 255 127 0 255
0.4107638 -0.18316381 1.138 255 127 0 255
0.41148001 -0.18252 1.1340001 255 127 0 255
0.41364002 -0.18252 1.1340001 255 127 0 255
0.41580003 -0.18252 1.1340001 255 127 0 255
0.41796002 -0.18252 1.1340001 255 127 0 255
0.42012003 -0.18252 1.1340001 255 127 0 255
0.42376953 -0.18316381 1.138 255 127 0 255
0.42593715 -0.18316381 1.138 255 127 0 255
0.42810476 -0.18316381 1.138 255 127 0 255
0.32396764 -0.19117524 1.202 255 127 0 255
0.32625714 -0.19117524 1.202 255 127 0 255
0.32718 -0.19038001 1.197 255 127 0 255
0.32946 -0.19038001 1.197 255 127 0 255
0.32952285 -0.18910763 1.189 255 127 0 255
0.33067143 -0.18847144 1.1850001 255 127 0 255
0.33068097 -0.18719906 1.177 255 127 0 255
0.33179146 -0.18656288 1.1730001 255 127 0 255
0.33288667 -0.18592668 1.169 255 127 0 255
0.3339667 -0.18529049 1.1650001 255 127 0 255
0.33503142 -0.1846543 1.161 255 127 0 255
0.33608097 -0.18401811 1.1570001 255 127 0 255
0.33594573 -0.18274572 1.149 255 127 0 255
0.33577999 -0.18147334 1.141 255 127 0 255
0.33795333 -0.18147334 1.141 255 127 0 255
0.33923239 -0.18099619 1.138 255 127 0 255
0.34020001 -0.18036 1.1340001 255 127 0 255
0.34236002 -0.18036 1.1340001 255 127 0 255
0.34452003 -0.18036 1.1340001 255 127 0 255
0.34668002 -0.18036 1.1340001 255 127 0 255
0.34884 -0.18036 1.1340001 255 127 0 255
0.3497619 -0.17972381 1.13 255 127 0 255
0.35191429 -0.17972381 1.13 255 127 0 255
0.35532004 -0.18036 1.1340001 255 127 0 255
0.35748002 -0.18036 1.1340001 255 127 0 255
0.35964 -0.18036 1.1340001 255 127 0 255
0.36180001 -0.18036 1.1340001 255 127 0 255
0.36396003 -0.18036 1.1340001 255 127 0 255
0.36612001 -0.18036 1.1340001 255 127 0 255
0.36828002 -0.18036 1.1340001 255 127 0 255
0.37044004 -0.18036 1.1340001 255 127 0 255
0.37260002 -0.18036 1.1340001 255 127 0 255
0.37476 -0.18036 1.1340001 255 127 0 255
0.37692001 -0.18036 1.1340001 255 127 0 255
0.37908003 -0.18036 1.1340001 255 127 0 255
0.38124004 -0.18036 1.1340001 255 127 0 255
0.38204762 -0.17972381 1.13 255 127 0 255
0.38420001 -0.17972381 1.13 255 127 0 255
0.38772002 -0.18036 1.1340001 255 127 0 255
0.38988003 -0.18036 1.1340001 255 127 0 255
0.39204001 -0.18036 1.1340001 255 127 0 255
0.39420003 -0.18036 1.1340001 255 127 0 255
0.39636001 -0.18036 1.1340001 255 127 0 255
0.39852002 -0.18036 1.1340001 255 127 0 255
0.40209332 -0.18099619 1.138 255 127 0 255
0.40426093 -0.18099619 1.138 255 127 0 255
0.40642858 -0.18099619 1.138 255 127 0 255
0.40859619 -0.18099619 1.138 255 127 0 255
0.4107638 -0.18099619 1.138 255 127 0 255
0.41293141 -0.18099619 1.138 255 127 0 255
0.41364002 -0.18036 1.1340001 255 127 0 255
0.41580003 -0.18036 1.1340001 255 127 0 255
0.4164857 -0.17972381 1.13 255 127 0 255
0.41863811 -0.17972381 1.13 255 127 0 255
0.42228001 -0.18036 1.1340001 255 127 0 255
0.42593715 -0.18099619 1.138 255 127 0 255
0.32738096 -0.19642857 1.25 255 127 0 255
0.32976189 -0.19642857 1.25 255 127 0 255
0.32396764 -0.18888572 1.202 255 127 0 255
0.32625714 -0.18888572 1.202 255 127 0 255
0.32718 -0.1881 1.197 255 127 0 255
0.32946 -0.1881 1.197 255 127 0 255
0.32952285 -0.18684286 1.189 255 127 0 255
0.33067143 -0.1862143 1.1850001 255 127 0 255
0.33180478 -0.18558574 1.1810001 255 127 0 255
0.33292285 -0.18495715 1.177 255 127 0 255
0.33402574 -0.18432859 1.1730001 255 127 0 255
0.3339667 -0.18307143 1.1650001 255 127 0 255
0.33618572 -0.18307143 1.1650001 255 127 0 255
0.33608097 -0.1818143 1.1570001 255 127 0 255
0.33594573 -0.18055715 1.149 255 127 0 255
0.33695716 -0.17992859 1.1450001 255 127 0 255
0.33913812 -0.17992859 1.1450001 255 127 0 255
0.34012666 -0.1793 1.141 255 127 0 255
0.3414 -0.17882857 1.138 255 127 0 255
0.34356761 -0.17882857 1.138 255 127 0 255
0.34573525 -0.17882857 1.138 255 127 0 255
0.34423429 -0.17694287 1.126 255 127 0 255
0.34637907 -0.17694287 1.126 255 127 0 255
0.34852383 -0.17694287 1.126 255 127 0 255
0.35191429 -0.17757143 1.13 255 127 0 255
0.35406664 -0.17757143 1.13 255 127 0 255
0.35621905 -0.17757143 1.13 255 127 0 255
0.35837144 -0.17757143 1.13 255 127 0 255
0.36052379 -0.17757143 1.13 255 127 0 255
0.36396003 -0.17820001 1.1340001 255 127 0 255
0.36612001 -0.17820001 1.1340001 255 127 0 255
0.36828002 -0.17820001 1.1340001 255 127 0 255
0.37044004 -0.17820001 1.1340001 255 127 0 255
0.37260002 -0.17820001 1.1340001 255 127 0 255
0.37476 -0.17820001 1.1340001 255 127 0 255
0.37692001 -0.17820001 1.1340001 255 127 0 255
0.37908003 -0.17820001 1.1340001 255 127 0 255
0.38124004 -0.17820001 1.1340001 255 127 0 255
0.38204762 -0.17757143 1.13 255 127 0 255
0.38420001 -0.17757143 1.13 255 127 0 255
0.38772002 -0.17820001 1.1340001 255 127 0 255
0.38988003 -0.17820001 1.1340001 255 127 0 255
0.39204001 -0.17820001 1.1340001 255 127 0 255
0.39420003 -0.17820001 1.1340001 255 127 0 255
0.39636001 -0.17820001 1.1340001 255 127 0 255
0.39852002 -0.17820001 1.1340001 255 127 0 255
0.40068001 -0.17820001 1.1340001 255 127 0 255
0.40426093 -0.17882857 1.138 255 127 0 255
0.40642858 -0.17882857 1.138 255 127 0 255
0.40859619 -0.17882857 1.138 255 127 0 255
0.4107638 -0.17882857 1.138 255 127 0 255
0.41293141 -0.17882857 1.138 255 127 0 255
0.41509905 -0.17882857 1.138 255 127 0 255
0.41726667 -0.17882857 1.138 255 127 0 255
0.4164857 -0.17757143 1.13 255 127 0 255
0.41863811 -0.17757143 1.13 255 127 0 255
0.42228001 -0.17820001 1.1340001 255 127 0 255
0.32738096 -0.19404761 1.25 255 127 0 255
0.32844284 -0.19327143 1.245 255 127 0 255
0.32975143 -0.19265048 1.2410001 255 127 0 255
0.3272981 -0.1898562 1.223 255 127 0 255
0.32854953 -0.18923526 1.2190001 255 127 0 255
0.32625714 -0.1865962 1.202 255 127 0 255
0.32854667 -0.1865962 1.202 255 127 0 255
0.32946 -0.18582 1.197 255 127 0 255
0.32952285 -0.18457811 1.189 255 127 0 255
0.33067143 -0.18395716 1.1850001 255 127 0 255
0.33180478 -0.18333621 1.1810001 255 127 0 255
0.33292285 -0.18271525 1.177 255 127 0 255
0.33402574 -0.18209431 1.1730001 255 127 0 255
0.33511335 -0.18147334 1.169 255 127 0 255
0.33618572 -0.1808524 1.1650001 255 127 0 255
0.33724287 -0.18023142 1.161 255 127 0 255
0.33594573 -0.17836857 1.149 255 127 0 255
0.33695716 -0.17774762 1.1450001 255 127 0 255
0.33913812 -0.17774762 1.1450001 255 127 0 255
0.34012666 -0.17712666 1.141 255 127 0 255
0.3414 -0.17666095 1.138 255 127 0 255
0.34356761 -0.17666095 1.138 255 127 0 255
0.34573525 -0.17666095 1.138 255 127 0 255
0.34423429 -0.1747981 1.126 255 127 0 255
0.34637907 -0.1747981 1.126 255 127 0 255
0.34852383 -0.1747981 1.126 255 127 0 255
0.35066858 -0.1747981 1.126 255 127 0 255
0.35281333 -0.1747981 1.126 255 127 0 255
0.35621905 -0.17541905 1.13 255 127 0 255
0.35837144 -0.17541905 1.13 255 127 0 255
0.36052379 -0.17541905 1.13 255 127 0 255
0.36267617 -0.17541905 1.13 255 127 0 255
0.36482859 -0.17541905 1.13 255 127 0 255
0.36698094 -0.17541905 1.13 255 127 0 255
0.36913332 -0.17541905 1.13 255 127 0 255
0.37128571 -0.17541905 1.13 255 127 0 255
0.37476 -0.17604001 1.1340001 255 127 0 255
0.37692001 -0.17604001 1.1340001 255 127 0 255
0.37908003 -0.17604001 1.1340001 255 127 0 255
0.38124004 -0.17604001 1.1340001 255 127 0 255
0.38339999 -0.17604001 1.1340001 255 127 0 255
0.38556001 -0.17604001 1.1340001 255 127 0 255
0.38772002 -0.17604001 1.1340001 255 127 0 255
0.38988003 -0.17604001 1.1340001 255 127 0 255
0.39204001 -0.17604001 1.1340001 255 127 0 255
0.39420003 -0.17604001 1.1340001 255 127 0 255
0.39636001 -0.17604001 1.1340001 255 127 0 255
0.39852002 -0.17604001 1.1340001 255 127 0 255
0.40068001 -0.17604001 1.1340001 255 127 0 255
0.40426093 -0.17666095 1.138 255 127 0 255
0.40642858 -0.17666095 1.138 255 127 0 255
0.40859619 -0.17666095 1.138 255 127 0 255
0.4107638 -0.17666095 1.138 255 127 0 255
0.41293141 -0.17666095 1.138 255 127 0 255
0.41364002 -0.17604001 1.1340001 255 127 0 255
0.41580003 -0.17604001 1.1340001 255 127 0 255
0.41796002 -0.17604001 1.1340001 255 127 0 255
0.32499999 -0.19166666 1.25 255 127 0 255
0.32607141 -0.1909 1.245 255 127 0 255
0.32738763 -0.19028668 1.2410001 255 127 0 255
0.32975143 -0.19028668 1.2410001 255 127 0 255
0.3272981 -0.18752667 1.223 255 127 0 255
0.32854953 -0.18691334 1.2190001 255 127 0 255
0.32842857 -0.18553334 1.21 255 127 0 255
0.32854667 -0.18430667 1.202 255 127 0 255
0.32946 -0.18354 1.197 255 127 0 255
0.32952285 -0.18231334 1.189 255 127 0 255
0.33067143 -0.18170001 1.1850001 255 127 0 255
0.33292857 -0.18170001 1.1850001 255 127 0 255
0.33405429 -0.18108669 1.1810001 255 127 0 255
0.33516476 -0.18047334 1.177 255 127 0 255
0.33626002 -0.17986001 1.1730001 255 127 0 255
0.33734 -0.17924666 1.169 255 127 0 255
0.33724287 -0.17802 1.161 255 127 0 255
0.33711523 -0.17679332 1.153 255 127 0 255
0.33813429 -0.17618001 1.149 255 127 0 255
0.34032288 -0.17618001 1.149 255 127 0 255
0.34131908 -0.17556667 1.1450001 255 127 0 255
0.3423 -0.17495334 1.141 255 127 0 255
0.34356761 -0.17449333 1.138 255 127 0 255
0.34573525 -0.17449333 1.138 255 127 0 255
0.34790286 -0.17449333 1.138 255 127 0 255
0.35007048 -0.17449333 1.138 255 127 0 255
0.34852383 -0.17265335 1.126 255 127 0 255
0.35066858 -0.17265335 1.126 255 127 0 255
0.35281333 -0.17265335 1.126 255 127 0 255
0.35621905 -0.17326666 1.13 255 127 0 255
0.35710287 -0.17265335 1.126 255 127 0 255
0.35924762 -0.17265335 1.126 255 127 0 255
0.36139238 -0.17265335 1.126 255 127 0 255
0.36353716 -0.17265335 1.126 255 127 0 255
0.36568192 -0.17265335 1.126 255 127 0 255
0.36913332 -0.17326666 1.13 255 127 0 255
0.37128571 -0.17326666 1.13 255 127 0 255
0.37343809 -0.17326666 1.13 255 127 0 255
0.37692001 -0.17388 1.1340001 255 127 0 255
0.37908003 -0.17388 1.1340001 255 127 0 255
0.38124004 -0.17388 1.1340001 255 127 0 255
0.38339999 -0.17388 1.1340001 255 127 0 255
0.38556001 -0.17388 1.1340001 255 127 0 255
0.38772002 -0.17388 1.1340001 255 127 0 255
0.38988003 -0.17388 1.1340001 255 127 0 255
0.39204001 -0.17388 1.1340001 255 127 0 255
0.39420003 -0.17388 1.1340001 255 127 0 255
0.39636001 -0.17388 1.1340001 255 127 0 255
0.39852002 -0.17388 1.1340001 255 127 0 255
0.40209332 -0.17449333 1.138 255 127 0 255
0.40284002 -0.17388 1.1340001 255 127 0 255
0.40500003 -0.17388 1.1340001 255 127 0 255
0.40859619 -0.17449333 1.138 255 127 0 255
0.4107638 -0.17449333 1.138 255 127 0 255
0.41293141 -0.17449333 1.138 255 127 0 255
0.41364002 -0.17388 1.1340001 255 127 0 255
0.41580003 -0.17388 1.1340001 255 127 0 255
0.41796002 -0.17388 1.1340001 255 127 0 255
0.32499999 -0.18928571 1.25 255 127 0 255
0.32607141 -0.18852857 1.245 255 127 0 255
0.32738763 -0.18792287 1.2410001 255 127 0 255
0.32975143 -0.18792287 1.2410001 255 127 0 255
0.3272981 -0.18519714 1.223 255 127 0 255
0.32854953 -0.18459144 1.2190001 255 127 0 255
0.32951429 -0.1838343 1.2140001 255 127 0 255
0.33073336 -0.18322857 1.21 255 127 0 255
0.32835904 -0.1806543 1.1930001 255 127 0 255
0.32952285 -0.18004857 1.189 255 127 0 255
0.33178762 -0.18004857 1.189 255 127 0 255
0.33292857 -0.17944287 1.1850001 255 127 0 255
0.33405429 -0.17883717 1.1810001 255 127 0 255
0.33516476 -0.17823143 1.177 255 127 0 255
0.33626002 -0.17762573 1.1730001 255 127 0 255
0.33734 -0.17702 1.169 255 127 0 255
0.33724287 -0.17580856 1.161 255 127 0 255
0.33828476 -0.17520286 1.1570001 255 127 0 255
0.33931142 -0.17459714 1.153 255 127 0 255
0.34150761 -0.17459714 1.153 255 127 0 255
0.34251145 -0.17399144 1.149 255 127 0 255
0.34350002 -0.17338574 1.1450001 255 127 0 255
0.34447336 -0.17278001 1.141 255 127 0 255
0.34664667 -0.17278001 1.141 255 127 0 255
0.34882 -0.17278001 1.141 255 127 0 255
0.35007048 -0.17232572 1.138 255 127 0 255
0.3497619 -0.17111428 1.13 255 127 0 255
0.35191429 -0.17111428 1.13 255 127 0 255
0.35406664 -0.17111428 1.13 255 127 0 255
0.35621905 -0.17111428 1.13 255 127 0 255
0.35710287 -0.17050858 1.126 255 127 0 255
0.35924762 -0.17050858 1.126 255 127 0 255
0.36139238 -0.17050858 1.126 255 127 0 255
0.36353716 -0.17050858 1.126 255 127 0 255
0.36568192 -0.17050858 1.126 255 127 0 255
0.36913332 -0.17111428 1.13 255 127 0 255
0.37128571 -0.17111428 1.13 255 127 0 255
0.37343809 -0.17111428 1.13 255 127 0 255
0.37692001 -0.17172001 1.1340001 255 127 0 255
0.37908003 -0.17172001 1.1340001 255 127 0 255
0.38124004 -0.17172001 1.1340001 255 127 0 255
0.38339999 -0.17172001 1.1340001 255 127 0 255
0.38556001 -0.17172001 1.1340001 255 127 0 255
0.38772002 -0.17172001 1.1340001 255 127 0 255
0.38988003 -0.17172001 1.1340001 255 127 0 255
0.39204001 -0.17172001 1.1340001 255 127 0 255
0.39420003 -0.17172001 1.1340001 255 127 0 255
0.39636001 -0.17172001 1.1340001 255 127 0 255
0.39852002 -0.17172001 1.1340001 255 127 0 255
0.40209332 -0.17232572 1.138 255 127 0 255
0.40284002 -0.17172001 1.1340001 255 127 0 255
0.40500003 -0.17172001 1.1340001 255 127 0 255
0.40859619 -0.17232572 1.138 255 127 0 255
0.4107638 -0.17232572 1.138 255 127 0 255
0.41293141 -0.17232572 1.138 255 127 0 255
0.41364002 -0.17172001 1.1340001 255 127 0 255
0.41580003 -0.17172001 1.1340001 255 127 0 255
0.41943428 -0.17232572 1.138 255 127 0 255
0.32499999 -0.18690476 1.25 255 127 0 255
0.32502383 -0.18555905 1.2410001 255 127 0 255
0.32606858 -0.18481143 1.2360001 255 127 0 255
0.32736003 -0.18421334 1.2320001 255 127 0 255
0.3272981 -0.18286762 1.223 255 127 0 255
0.32854953 -0.18226953 1.2190001 255 127 0 255
0.32951429 -0.18152192 1.2140001 255 127 0 255
0.33073336 -0.1809238 1.21 255 127 0 255
0.32835904 -0.17838192 1.1930001 255 127 0 255
0.32952285 -0.17778382 1.189 255 127 0 255
0.33178762 -0.17778382 1.189 255 127 0 255
0.33292857 -0.17718573 1.1850001 255 127 0 255
0.33405429 -0.17658764 1.1810001 255 127 0 255
0.33630386 -0.17658764 1.1810001 255 127 0 255
0.33740667 -0.17598952 1.177 255 127 0 255
0.33849433 -0.17539144 1.1730001 255 127 0 255
0.33724287 -0.17359714 1.161 255 127 0 255
0.33828476 -0.17299907 1.1570001 255 127 0 255
0.33931142 -0.17240095 1.153 255 127 0 255
0.34150761 -0.17240095 1.153 255 127 0 255
0.34251145 -0.17180286 1.149 255 127 0 255
0.34470001 -0.17180286 1.149 255 127 0 255
0.34568098 -0.17120478 1.1450001 255 127 0 255
0.34786195 -0.17120478 1.1450001 255 127 0 255
0.35004291 -0.17120478 1.1450001 255 127 0 255
0.35222381 -0.17120478 1.1450001 255 127 0 255
0.3497619 -0.16896191 1.13 255 127 0 255
0.35191429 -0.16896191 1.13 255 127 0 255
0.35406664 -0.16896191 1.13 255 127 0 255
0.35495812 -0.16836382 1.126 255 127 0 255
0.35710287 -0.16836382 1.126 255 127 0 255
0.35924762 -0.16836382 1.126 255 127 0 255
0.36139238 -0.16836382 1.126 255 127 0 255
0.36353716 -0.16836382 1.126 255 127 0 255
0.36568192 -0.16836382 1.126 255 127 0 255
0.36782667 -0.16836382 1.126 255 127 0 255
0.36997142 -0.16836382 1.126 255 127 0 255
0.37343809 -0.16896191 1.13 255 127 0 255
0.37692001 -0.16956 1.1340001 255 127 0 255
0.37908003 -0.16956 1.1340001 255 127 0 255
0.37989521 -0.16896191 1.13 255 127 0 255
0.38204762 -0.16896191 1.13 255 127 0 255
0.38420001 -0.16896191 1.13 255 127 0 255
0.38772002 -0.16956 1.1340001 255 127 0 255
0.38850474 -0.16896191 1.13 255 127 0 255
0.39065713 -0.16896191 1.13 255 127 0 255
0.39280954 -0.16896191 1.13 255 127 0 255
0.39496189 -0.16896191 1.13 255 127 0 255
0.39711428 -0.16896191 1.13 255 127 0 255
0.40068001 -0.16956 1.1340001 255 127 0 255
0.40284002 -0.16956 1.1340001 255 127 0 255
0.40500003 -0.16956 1.1340001 255 127 0 255
0.40859619 -0.17015809 1.138 255 127 0 255
0.4107638 -0.17015809 1.138 255 127 0 255
0.41402 -0.17060667 1.141 255 127 0 255
0.41509905 -0.17015809 1.138 255 127 0 255
0.41726667 -0.17015809 1.138 255 127 0 255
0.41943428 -0.17015809 1.138 255 127 0 255
0.32370001 -0.18378572 1.245 255 127 0 255
0.32502383 -0.18319525 1.2410001 255 127 0 255
0.32606858 -0.18245716 1.2360001 255 127 0 255
0.32736003 -0.18186669 1.2320001 255 127 0 255
0.32836857 -0.18112858 1.2270001 255 127 0 255
0.32962763 -0.1805381 1.223 255 127 0 255
0.33087146 -0.17994764 1.2190001 255 127 0 255
0.33073336 -0.17861904 1.21 255 127 0 255
0.32946 -0.1767 1.197 255 127 0 255
0.32952285 -0.17551905 1.189 255 127 0 255
0.33178762 -0.17551905 1.189 255 127 0 255
0.33292857 -0.17492858 1.1850001 255 127 0 255
0.33518571 -0.17492858 1.1850001 255 127 0 255
0.33630386 -0.17433812 1.1810001 255 127 0 255
0.33855337 -0.17433812 1.1810001 255 127 0 255
0.33964857 -0.17374763 1.177 255 127 0 255
0.33840477 -0.17197619 1.1650001 255 127 0 255
0.33945429 -0.17138572 1.161 255 127 0 255
0.34048858 -0.17079525 1.1570001 255 127 0 255
0.34150761 -0.17020476 1.153 255 127 0 255
0.34370381 -0.17020476 1.153 255 127 0 255
0.34470001 -0.16961429 1.149 255 127 0 255
0.34688857 -0.16961429 1.149 255 127 0 255
0.34786195 -0.16902383 1.1450001 255 127 0 255
0.35004291 -0.16902383 1.1450001 255 127 0 255
0.35222381 -0.16902383 1.1450001 255 127 0 255
0.35100001 -0.1674 1.1340001 255 127 0 255
0.35191429 -0.16680951 1.13 255 127 0 255
0.35406664 -0.16680951 1.13 255 127 0 255
0.35495812 -0.16621906 1.126 255 127 0 255
0.35710287 -0.16621906 1.126 255 127 0 255
0.35924762 -0.16621906 1.126 255 127 0 255
0.36139238 -0.16621906 1.126 255 127 0 255
0.36353716 -0.16621906 1.126 255 127 0 255
0.36568192 -0.16621906 1.126 255 127 0 255
0.36782667 -0.16621906 1.126 255 127 0 255
0.36997142 -0.16621906 1.126 255 127 0 255
0.37211621 -0.16621906 1.126 255 127 0 255
0.37559047 -0.16680951 1.13 255 127 0 255
0.37774286 -0.16680951 1.13 255 127 0 255
0.37989521 -0.16680951 1.13 255 127 0 255
0.38204762 -0.16680951 1.13 255 127 0 255
0.38420001 -0.16680951 1.13 255 127 0 255
0.38635239 -0.16680951 1.13 255 127 0 255
0.38850474 -0.16680951 1.13 255 127 0 255
0.39065713 -0.16680951 1.13 255 127 0 255
0.39280954 -0.16680951 1.13 255 127 0 255
0.39496189 -0.16680951 1.13 255 127 0 255
0.39711428 -0.16680951 1.13 255 127 0 255
0.40068001 -0.1674 1.1340001 255 127 0 255
0.40141904 -0.16680951 1.13 255 127 0 255
0.40357143 -0.16680951 1.13 255 127 0 255
0.40859619 -0.16799048 1.138 255 127 0 255
0.4107638 -0.16799048 1.138 255 127 0 255
0.41402 -0.16843334 1.141 255 127 0 255
0.41619334 -0.16843334 1.141 255 127 0 255
0.32370001 -0.18141429 1.245 255 127 0 255
0.32502383 -0.18083143 1.2410001 255 127 0 255
0.32606858 -0.18010285 1.2360001 255 127 0 255
0.32842287 -0.18010285 1.2360001 255 127 0 255
0.32970667 -0.17952001 1.2320001 255 127 0 255
0.33070573 -0.17879145 1.2270001 255 127 0 255
0.33087146 -0.17762573 1.2190001 255 127 0 255
0.33182669 -0.17689715 1.2140001 255 127 0 255
0.32946 -0.17442 1.197 255 127 0 255
0.33063143 -0.17383714 1.1930001 255 127 0 255
0.3329038 -0.17383714 1.1930001 255 127 0 255
0.33405238 -0.1732543 1.189 255 127 0 255
0.33518571 -0.17267144 1.1850001 255 127 0 255
0.33744287 -0.17267144 1.1850001 255 127 0 255
0.33855337 -0.17208859 1.1810001 255 127 0 255
0.33964857 -0.17150572 1.177 255 127 0 255
0.33840477 -0.16975716 1.1650001 255 127 0 255
0.33945429 -0.16917428 1.161 255 127 0 255
0.34048858 -0.16859144 1.1570001 255 127 0 255
0.34150761 -0.16800857 1.153 255 127 0 255
0.34370381 -0.16800857 1.153 255 127 0 255
0.34470001 -0.16742572 1.149 255 127 0 255
0.34688857 -0.16742572 1.149 255 127 0 255
0.34786195 -0.16684286 1.1450001 255 127 0 255
0.35004291 -0.16684286 1.1450001 255 127 0 255
0.35222381 -0.16684286 1.1450001 255 127 0 255
0.35100001 -0.16524 1.1340001 255 127 0 255
0.35316002 -0.16524 1.1340001 255 127 0 255
0.35532004 -0.16524 1.1340001 255 127 0 255
0.35621905 -0.16465715 1.13 255 127 0 255
0.35837144 -0.16465715 1.13 255 127 0 255
0.36052379 -0.16465715 1.13 255 127 0 255
0.36139238 -0.16407429 1.126 255 127 0 255
0.36353716 -0.16407429 1.126 255 127 0 255
0.36568192 -0.16407429 1.126 255 127 0 255
0.36782667 -0.16407429 1.126 255 127 0 255
0.36997142 -0.16407429 1.126 255 127 0 255
0.37211621 -0.16407429 1.126 255 127 0 255
0.37559047 -0.16465715 1.13 255 127 0 255
0.37774286 -0.16465715 1.13 255 127 0 255
0.37989521 -0.16465715 1.13 255 127 0 255
0.38204762 -0.16465715 1.13 255 127 0 255
0.38420001 -0.16465715 1.13 255 127 0 255
0.38635239 -0.16465715 1.13 255 127 0 255
0.38850474 -0.16465715 1.13 255 127 0 255
0.39065713 -0.16465715 1.13 255 127 0 255
0.39280954 -0.16465715 1.13 255 127 0 255
0.39496189 -0.16465715 1.13 255 127 0 255
0.39711428 -0.16465715 1.13 255 127 0 255
0.40068001 -0.16524 1.1340001 255 127 0 255
0.40141904 -0.16465715 1.13 255 127 0 255
0.40357143 -0.16465715 1.13 255 127 0 255
0.40859619 -0.16582285 1.138 255 127 0 255
0.4107638 -0.16582285 1.138 255 127 0 255
0.41293141 -0.16582285 1.138 255 127 0 255
0.32370001 -0.17904285 1.245 255 127 0 255
0.32502383 -0.17846762 1.2410001 255 127 0 255
0.32606858 -0.17774859 1.2360001 255 127 0 255
0.32736003 -0.17717335 1.2320001 255 127 0 255
0.32836857 -0.17645431 1.2270001 255 127 0 255
0.33070573 -0.17645431 1.2270001 255 127 0 255
0.33195716 -0.17587905 1.223 255 127 0 255
0.33182669 -0.17458478 1.2140001 255 127 0 255
0.33083621 -0.17285904 1.202 255 127 0 255
0.33173999 -0.17214 1.197 255 127 0 255
0.3329038 -0.17156476 1.1930001 255 127 0 255
0.3351762 -0.17156476 1.1930001 255 127 0 255
0.33631712 -0.17098953 1.189 255 127 0 255
0.33744287 -0.1704143 1.1850001 255 127 0 255
0.33855337 -0.16983907 1.1810001 255 127 0 255
0.33964857 -0.16926381 1.177 255 127 0 255
0.33840477 -0.16753811 1.1650001 255 127 0 255
0.34062383 -0.16753811 1.1650001 255 127 0 255
0.34048858 -0.16638763 1.1570001 255 127 0 255
0.3426924 -0.16638763 1.1570001 255 127 0 255
0.34370381 -0.16581237 1.153 255 127 0 255
0.34470001 -0.16523714 1.149 255 127 0 255
0.34688857 -0.16523714 1.149 255 127 0 255
0.34786195 -0.16466193 1.1450001 255 127 0 255
0.35004291 -0.16466193 1.1450001 255 127 0 255
0.35222381 -0.16466193 1.1450001 255 127 0 255
0.35316667 -0.16408667 1.141 255 127 0 255
0.35534003 -0.16408667 1.141 255 127 0 255
0.35532004 -0.16308001 1.1340001 255 127 0 255
0.35748002 -0.16308001 1.1340001 255 127 0 255
0.35964 -0.16308001 1.1340001 255 127 0 255
0.36052379 -0.16250476 1.13 255 127 0 255
0.36267617 -0.16250476 1.13 255 127 0 255
0.36482859 -0.16250476 1.13 255 127 0 255
0.36698094 -0.16250476 1.13 255 127 0 255
0.36913332 -0.16250476 1.13 255 127 0 255
0.37128571 -0.16250476 1.13 255 127 0 255
0.37343809 -0.16250476 1.13 255 127 0 255
0.37559047 -0.16250476 1.13 255 127 0 255
0.37774286 -0.16250476 1.13 255 127 0 255
0.37989521 -0.16250476 1.13 255 127 0 255
0.38204762 -0.16250476 1.13 255 127 0 255
0.38420001 -0.16250476 1.13 255 127 0 255
0.38635239 -0.16250476 1.13 255 127 0 255
0.38850474 -0.16250476 1.13 255 127 0 255
0.39065713 -0.16250476 1.13 255 127 0 255
0.39280954 -0.16250476 1.13 255 127 0 255
0.39496189 -0.16250476 1.13 255 127 0 255
0.39711428 -0.16250476 1.13 255 127 0 255
0.39926666 -0.16250476 1.13 255 127 0 255
0.40284002 -0.16308001 1.1340001 255 127 0 255
0.40500003 -0.16308001 1.1340001 255 127 0 255
0.40716004 -0.16308001 1.1340001 255 127 0 255
0.32370001 -0.17667143 1.245 255 127 0 255
0.32502383 -0.17610382 1.2410001 255 127 0 255
0.32606858 -0.17539428 1.2360001 255 127 0 255
0.32736003 -0.17482668 1.2320001 255 127 0 255
0.32836857 -0.17411715 1.2270001 255 127 0 255
0.33070573 -0.17411715 1.2270001 255 127 0 255
0.33195716 -0.17354953 1.223 255 127 0 255
0.33319336 -0.17298192 1.2190001 255 127 0 255
0.33083621 -0.17056952 1.202 255 127 0 255
0.33173999 -0.16985999 1.197 255 127 0 255
0.3329038 -0.16929239 1.1930001 255 127 0 255
0.33405238 -0.16872476 1.189 255 127 0 255
0.33631712 -0.16872476 1.189 255 127 0 255
0.33744287 -0.16815715 1.1850001 255 127 0 255
0.33855337 -0.16758953 1.1810001 255 127 0 255
0.33964857 -0.1670219 1.177 255 127 0 255
0.33840477 -0.16531906 1.1650001 255 127 0 255
0.34062383 -0.16531906 1.1650001 255 127 0 255
0.34284288 -0.16531906 1.1650001 255 127 0 255
0.34387717 -0.16475143 1.161 255 127 0 255
0.34370381 -0.16361618 1.153 255 127 0 255
0.3459 -0.16361618 1.153 255 127 0 255
0.34688857 -0.16304858 1.149 255 127 0 255
0.34907714 -0.16304858 1.149 255 127 0 255
0.35004291 -0.16248097 1.1450001 255 127 0 255
0.35222381 -0.16248097 1.1450001 255 127 0 255
0.35440478 -0.16248097 1.1450001 255 127 0 255
0.35658574 -0.16248097 1.1450001 255 127 0 255
0.35657334 -0.16148761 1.138 255 127 0 255
0.35874096 -0.16148761 1.138 255 127 0 255
0.36090857 -0.16148761 1.138 255 127 0 255
0.36180001 -0.16091999 1.1340001 255 127 0 255
0.36396003 -0.16091999 1.1340001 255 127 0 255
0.36612001 -0.16091999 1.1340001 255 127 0 255
0.36698094 -0.16035238 1.13 255 127 0 255
0.36913332 -0.16035238 1.13 255 127 0 255
0.37128571 -0.16035238 1.13 255 127 0 255
0.37476 -0.16091999 1.1340001 255 127 0 255
0.37692001 -0.16091999 1.1340001 255 127 0 255
0.37774286 -0.16035238 1.13 255 127 0 255
0.37989521 -0.16035238 1.13 255 127 0 255
0.38204762 -0.16035238 1.13 255 127 0 255
0.38420001 -0.16035238 1.13 255 127 0 255
0.38635239 -0.16035238 1.13 255 127 0 255
0.38850474 -0.16035238 1.13 255 127 0 255
0.3892743 -0.15978476 1.126 255 127 0 255
0.39141905 -0.15978476 1.126 255 127 0 255
0.39496189 -0.16035238 1.13 255 127 0 255
0.39711428 -0.16035238 1.13 255 127 0 255
0.39926666 -0.16035238 1.13 255 127 0 255
0.40141904 -0.16035238 1.13 255 127 0 255
0.32499999 -0.175 1.25 255 127 0 255
0.32502383 -0.17374 1.2410001 255 127 0 255
0.32606858 -0.17304002 1.2360001 255 127 0 255
0.32736003 -0.17248002 1.2320001 255 127 0 255
0.32970667 -0.17248002 1.2320001 255 127 0 255
0.33070573 -0.17178002 1.2270001 255 127 0 255
0.33195716 -0.17122 1.223 255 127 0 255
0.33319336 -0.17066 1.2190001 255 127 0 255
0.33193716 -0.16884001 1.2060001 255 127 0 255
0.33173999 -0.16757999 1.197 255 127 0 255
0.3329038 -0.16702001 1.1930001 255 127 0 255
0.33405238 -0.16646001 1.189 255 127 0 255
0.33631712 -0.16646001 1.189 255 127 0 255
0.33744287 -0.16590001 1.1850001 255 127 0 255
0.33970001 -0.16590001 1.1850001 255 127 0 255
0.34080291 -0.16534001 1.1810001 255 127 0 255
0.33956668 -0.16366 1.169 255 127 0 255
0.34179333 -0.16366 1.169 255 127 0 255
0.34284288 -0.1631 1.1650001 255 127 0 255
0.34506193 -0.1631 1.1650001 255 127 0 255
0.3448962 -0.16198 1.1570001 255 127 0 255
0.3459 -0.16142 1.153 255 127 0 255
0.34809619 -0.16142 1.153 255 127 0 255
0.34907714 -0.16086 1.149 255 127 0 255
0.35126573 -0.16086 1.149 255 127 0 255
0.35345429 -0.16086 1.149 255 127 0 255
0.35564288 -0.16086 1.149 255 127 0 255
0.35658574 -0.16030002 1.1450001 255 127 0 255
0.3587667 -0.16030002 1.1450001 255 127 0 255
0.36094764 -0.16030002 1.1450001 255 127 0 255
0.3631286 -0.16030002 1.1450001 255 127 0 255
0.36403334 -0.15974 1.141 255 127 0 255
0.36524382 -0.15932 1.138 255 127 0 255
0.36741143 -0.15932 1.138 255 127 0 255
0.36957905 -0.15932 1.138 255 127 0 255
0.37174669 -0.15932 1.138 255 127 0 255
0.37260002 -0.15876001 1.1340001 255 127 0 255
0.37476 -0.15876001 1.1340001 255 127 0 255
0.37692001 -0.15876001 1.1340001 255 127 0 255
0.37774286 -0.1582 1.13 255 127 0 255
0.37989521 -0.1582 1.13 255 127 0 255
0.38204762 -0.1582 1.13 255 127 0 255
0.38420001 -0.1582 1.13 255 127 0 255
0.38635239 -0.1582 1.13 255 127 0 255
0.38609812 -0.15722001 1.123 255 127 0 255
0.38823715 -0.15722001 1.123 255 127 0 255
0.39141905 -0.15764 1.126 255 127 0 255
0.39496189 -0.1582 1.13 255 127 0 255
0.39711428 -0.1582 1.13 255 127 0 255
0.32499999 -0.17261904 1.25 255 127 0 255
0.32502383 -0.1713762 1.2410001 255 127 0 255
0.32606858 -0.17068571 1.2360001 255 127 0 255
0.32736003 -0.17013335 1.2320001 255 127 0 255
0.32970667 -0.17013335 1.2320001 255 127 0 255
0.33070573 -0.16944288 1.2270001 255 127 0 255
0.33304289 -0.16944288 1.2270001 255 127 0 255
0.33319336 -0.16833812 1.2190001 255 127 0 255
0.33303809 -0.16709524 1.21 255 127 0 255
0.33312571 -0.16599049 1.202 255 127 0 255
0.33402002 -0.1653 1.197 255 127 0 255
0.3351762 -0.16474763 1.1930001 255 127 0 255
0.33744857 -0.16474763 1.1930001 255 127 0 255
0.33858192 -0.16419524 1.189 255 127 0 255
0.33970001 -0.16364287 1.1850001 255 127 0 255
0.34080291 -0.16309048 1.1810001 255 127 0 255
0.34305242 -0.16309048 1.1810001 255 127 0 255
0.34413239 -0.1625381 1.177 255 127 0 255
0.34402001 -0.16143334 1.169 255 127 0 255
0.34624669 -0.16143334 1.169 255 127 0 255
0.34608856 -0.16032857 1.161 255 127 0 255
0.34710002 -0.1597762 1.1570001 255 127 0 255
0.34930381 -0.1597762 1.1570001 255 127 0 255
0.35029238 -0.15922381 1.153 255 127 0 255
0.35248858 -0.15922381 1.153 255 127 0 255
0.35468477 -0.15922381 1.153 255 127 0 255
0.35564288 -0.15867144 1.149 255 127 0 255
0.35783145 -0.15867144 1.149 255 127 0 255
0.3587667 -0.15811905 1.1450001 255 127 0 255
0.36094764 -0.15811905 1.1450001 255 127 0 255
0.3631286 -0.15811905 1.1450001 255 127 0 255
0.36530957 -0.15811905 1.1450001 255 127 0 255
0.36620668 -0.15756667 1.141 255 127 0 255
0.36838001 -0.15756667 1.141 255 127 0 255
0.37055334 -0.15756667 1.141 255 127 0 255
0.37174669 -0.15715237 1.138 255 127 0 255
0.3739143 -0.15715237 1.138 255 127 0 255
0.37608191 -0.15715237 1.138 255 127 0 255
0.37824953 -0.15715237 1.138 255 127 0 255
0.37908003 -0.1566 1.1340001 255 127 0 255
0.38124004 -0.1566 1.1340001 255 127 0 255
0.38339999 -0.1566 1.1340001 255 127 0 255
0.38420001 -0.15604763 1.13 255 127 0 255
0.38635239 -0.15604763 1.13 255 127 0 255
0.38609812 -0.15508096 1.123 255 127 0 255
0.38823715 -0.15508096 1.123 255 127 0 255
0.39037621 -0.15508096 1.123 255 127 0 255
0.39251524 -0.15508096 1.123 255 127 0 255
0.32630002 -0.17091906 1.2550001 255 127 0 255
0.32607141 -0.16955714 1.245 255 127 0 255
0.32738763 -0.1690124 1.2410001 255 127 0 255
0.32842287 -0.16833144 1.2360001 255 127 0 255
0.32970667 -0.16778667 1.2320001 255 127 0 255
0.33205336 -0.16778667 1.2320001 255 127 0 255
0.33304289 -0.16710572 1.2270001 255 127 0 255
0.33319336 -0.16601621 1.2190001 255 127 0 255
0.33413908 -0.16533525 1.2140001 255 127 0 255
0.33312571 -0.16370095 1.202 255 127 0 255
0.33402002 -0.16302 1.197 255 127 0 255
0.3351762 -0.16247524 1.1930001 255 127 0 255
0.33744857 -0.16247524 1.1930001 255 127 0 255
0.33858192 -0.16193049 1.189 255 127 0 255
0.33970001 -0.16138572 1.1850001 255 127 0 255
0.34195715 -0.16138572 1.1850001 255 127 0 255
0.34305242 -0.16084096 1.1810001 255 127 0 255
0.34530196 -0.16084096 1.1810001 255 127 0 255
0.3463743 -0.16029619 1.177 255 127 0 255
0.34624669 -0.15920667 1.169 255 127 0 255
0.34847334 -0.15920667 1.169 255 127 0 255
0.34829998 -0.15811713 1.161 255 127 0 255
0.35051143 -0.15811713 1.161 255 127 0 255
0.35150763 -0.15757239 1.1570001 255 127 0 255
0.35248858 -0.15702762 1.153 255 127 0 255
0.35468477 -0.15702762 1.153 255 127 0 255
0.35688096 -0.15702762 1.153 255 127 0 255
0.35907716 -0.15702762 1.153 255 127 0 255
0.36002001 -0.15648286 1.149 255 127 0 255
0.3622086 -0.15648286 1.149 255 127 0 255
0.36439714 -0.15648286 1.149 255 127 0 255
0.36658573 -0.15648286 1.149 255 127 0 255
0.3674905 -0.1559381 1.1450001 255 127 0 255
0.36967146 -0.1559381 1.1450001 255 127 0 255
0.37315145 -0.15648286 1.149 255 127 0 255
0.37403336 -0.1559381 1.1450001 255 127 0 255
0.37490001 -0.15539335 1.141 255 127 0 255
0.37707332 -0.15539335 1.141 255 127 0 255
0.37824953 -0.15498477 1.138 255 127 0 255
0.38041717 -0.15498477 1.138 255 127 0 255
0.38258475 -0.15498477 1.138 255 127 0 255
0.38982379 -0.15702762 1.153 255 127 0 255
0.39201999 -0.15702762 1.153 255 127 0 255
0.32630002 -0.16852859 1.2550001 255 127 0 255
0.32607141 -0.16718571 1.245 255 127 0 255
0.32738763 -0.16664857 1.2410001 255 127 0 255
0.32842287 -0.16597714 1.2360001 255 127 0 255
0.32970667 -0.16544002 1.2320001 255 127 0 255
0.33205336 -0.16544002 1.2320001 255 127 0 255
0.33304289 -0.16476859 1.2270001 255 127 0 255
0.33428666 -0.16423143 1.223 255 127 0 255
0.33413908 -0.16302286 1.2140001 255 127 0 255
0.33534285 -0.16248572 1.21 255 127 0 255
0.33541524 -0.16141143 1.202 255 127 0 255
0.33630002 -0.16074 1.197 255 127 0 255
0.33858001 -0.16074 1.197 255 127 0 255
0.33972096 -0.16020286 1.1930001 255 127 0 255
0.34084666 -0.15966572 1.189 255 127 0 255
0.34195715 -0.15912858 1.1850001 255 127 0 255
0.34421429 -0.15912858 1.1850001 255 127 0 255
0.34530196 -0.15859143 1.1810001 255 127 0 255
0.34755147 -0.15859143 1.1810001 255 127 0 255
0.349801 -0.15859143 1.1810001 255 127 0 255
0.34847334 -0.15698001 1.169 255 127 0 255
0.34950003 -0.15644287 1.1650001 255 127 0 255
0.35171905 -0.15644287 1.1650001 255 127 0 255
0.35150763 -0.15536858 1.1570001 255 127 0 255
0.35371146 -0.15536858 1.1570001 255 127 0 255
0.35591525 -0.15536858 1.1570001 255 127 0 255
0.35811907 -0.15536858 1.1570001 255 127 0 255
0.35907716 -0.15483142 1.153 255 127 0 255
0.36127335 -0.15483142 1.153 255 127 0 255
0.36346951 -0.15483142 1.153 255 127 0 255
0.3656657 -0.15483142 1.153 255 127 0 255
0.3678619 -0.15483142 1.153 255 127 0 255
0.37005809 -0.15483142 1.153 255 127 0 255
0.37225428 -0.15483142 1.153 255 127 0 255
0.37445047 -0.15483142 1.153 255 127 0 255
0.37664667 -0.15483142 1.153 255 127 0 255
0.3762143 -0.15375715 1.1450001 255 127 0 255
0.37839526 -0.15375715 1.1450001 255 127 0 255
0.3819057 -0.15429428 1.149 255 127 0 255
0.3840943 -0.15429428 1.149 255 127 0 255
0.38762763 -0.15483142 1.153 255 127 0 255
0.38982379 -0.15483142 1.153 255 127 0 255
0.32738096 -0.16547619 1.25 255 127 0 255
0.32844284 -0.16481429 1.245 255 127 0 255
0.32975143 -0.16428477 1.2410001 255 127 0 255
0.33077714 -0.16362287 1.2360001 255 127 0 255
0.33205336 -0.16309334 1.2320001 255 127 0 255
0.33304289 -0.16243143 1.2270001 255 127 0 255
0.33428666 -0.16190191 1.223 255 127 0 255
0.33413908 -0.16071048 1.2140001 255 127 0 255
0.33534285 -0.16018096 1.21 255 127 0 255
0.33653146 -0.15965144 1.2060001 255 127 0 255
0.33770475 -0.1591219 1.202 255 127 0 255
0.33858001 -0.15846001 1.197 255 127 0 255
0.33972096 -0.15793048 1.1930001 255 127 0 255
0.34199333 -0.15793048 1.1930001 255 127 0 255
0.34311143 -0.15740095 1.189 255 127 0 255
0.34421429 -0.15687144 1.1850001 255 127 0 255
0.34647143 -0.15687144 1.1850001 255 127 0 255
0.34872857 -0.15687144 1.1850001 255 127 0 255
0.349801 -0.15634191 1.1810001 255 127 0 255
0.35085809 -0.1558124 1.177 255 127 0 255
0.35190001 -0.15528287 1.1730001 255 127 0 255
0.35292667 -0.15475333 1.169 255 127 0 255
0.35393813 -0.15422381 1.1650001 255 127 0 255
0.35493428 -0.15369429 1.161 255 127 0 255
0.3571457 -0.15369429 1.161 255 127 0 255
0.35811907 -0.15316477 1.1570001 255 127 0 255
0.36032286 -0.15316477 1.1570001 255 127 0 255
0.36252668 -0.15316477 1.1570001 255 127 0 255
0.36473048 -0.15316477 1.1570001 255 127 0 255
0.36693433 -0.15316477 1.1570001 255 127 0 255
0.36913812 -0.15316477 1.1570001 255 127 0 255
0.37134191 -0.15316477 1.1570001 255 127 0 255
0.37354574 -0.15316477 1.1570001 255 127 0 255
0.37574953 -0.15316477 1.1570001 255 127 0 255
0.37664667 -0.15263523 1.153 255 127 0 255
0.37884286 -0.15263523 1.153 255 127 0 255
0.38103905 -0.15263523 1.153 255 127 0 255
0.38323525 -0.15263523 1.153 255 127 0 255
0.38543144 -0.15263523 1.153 255 127 0 255
0.38762763 -0.15263523 1.153 255 127 0 255
0.38982379 -0.15263523 1.153 255 127 0 255
0.39338002 -0.15316477 1.1570001 255 127 0 255
0.3286905 -0.16374762 1.2550001 255 127 0 255
0.32976189 -0.16309524 1.25 255 127 0 255
0.32975143 -0.16192096 1.2410001 255 127 0 255
0.33077714 -0.16126858 1.2360001 255 127 0 255
0.33205336 -0.16074668 1.2320001 255 127 0 255
0.33304289 -0.16009429 1.2270001 255 127 0 255
0.33428666 -0.15957239 1.223 255 127 0 255
0.33551526 -0.15905049 1.2190001 255 127 0 255
0.33645144 -0.15839811 1.2140001 255 127 0 255
0.33764762 -0.15787619 1.21 255 127 0 255
0.33995238 -0.15787619 1.21 255 127 0 255
0.33999431 -0.15683238 1.202 255 127 0 255
0.34086001 -0.15617999 1.197 255 127 0 255
0.34199333 -0.1556581 1.1930001 255 127 0 255
0.34426573 -0.1556581 1.1930001 255 127 0 255
0.34537616 -0.1551362 1.189 255 127 0 255
0.34764096 -0.1551362 1.189 255 127 0 255
0.34872857 -0.15461428 1.1850001 255 127 0 255
0.35098574 -0.15461428 1.1850001 255 127 0 255
0.35205051 -0.15409239 1.1810001 255 127 0 255
0.3531 -0.15357049 1.177 255 127 0 255
0.35534191 -0.15357049 1.177 255 127 0 255
0.35515335 -0.15252666 1.169 255 127 0 255
0.35615715 -0.15200476 1.1650001 255 127 0 255
0.3583762 -0.15200476 1.1650001 255 127 0 255
0.35935715 -0.15148287 1.161 255 127 0 255
0.36156857 -0.15148287 1.161 255 127 0 255
0.36377999 -0.15148287 1.161 255 127 0 255
0.36599144 -0.15148287 1.161 255 127 0 255
0.36820287 -0.15148287 1.161 255 127 0 255
0.37041429 -0.15148287 1.161 255 127 0 255
0.37262574 -0.15148287 1.161 255 127 0 255
0.37354574 -0.15096095 1.1570001 255 127 0 255
0.37574953 -0.15096095 1.1570001 255 127 0 255
0.37795335 -0.15096095 1.1570001 255 127 0 255
0.38015714 -0.15096095 1.1570001 255 127 0 255
0.38236099 -0.15096095 1.1570001 255 127 0 255
0.38323525 -0.15043904 1.153 255 127 0 255
0.38543144 -0.15043904 1.153 255 127 0 255
0.38762763 -0.15043904 1.153 255 127 0 255
0.39117619 -0.15096095 1.1570001 255 127 0 255
0.39338002 -0.15096095 1.1570001 255 127 0 255
0.3286905 -0.16135716 1.2550001 255 127 0 255
0.33108097 -0.16135716 1.2550001 255 127 0 255
0.33214286 -0.16071428 1.25 255 127 0 255
0.3331857 -0.16007142 1.245 255 127 0 255
0.33447903 -0.15955715 1.2410001 255 127 0 255
0.33548573 -0.1589143 1.2360001 255 127 0 255
0.33674669 -0.15840001 1.2320001 255 127 0 255
0.33771718 -0.15775716 1.2270001 255 127 0 255
0.33894572 -0.15724286 1.223 255 127 0 255
0.33876383 -0.15608573 1.2140001 255 127 0 255
0.34107623 -0.15608573 1.2140001 255 127 0 255
0.34225717 -0.15557143 1.21 255 127 0 255
0.34228382 -0.15454286 1.202 255 127 0 255
0.34314001 -0.1539 1.197 255 127 0 255
0.34542 -0.1539 1.197 255 127 0 255
0.3465381 -0.15338571 1.1930001 255 127 0 255
0.34764096 -0.15287143 1.189 255 127 0 255
0.3499057 -0.15287143 1.189 255 127 0 255
0.35098574 -0.15235715 1.1850001 255 127 0 255
0.35324287 -0.15235715 1.1850001 255 127 0 255
0.35430005 -0.15184286 1.1810001 255 127 0 255
0.35654956 -0.15184286 1.1810001 255 127 0 255
0.35758382 -0.15132858 1.177 255 127 0 255
0.35738003 -0.1503 1.169 255 127 0 255
0.35960665 -0.1503 1.169 255 127 0 255
0.36059526 -0.14978573 1.1650001 255 127 0 255
0.36281431 -0.14978573 1.1650001 255 127 0 255
0.36503336 -0.14978573 1.1650001 255 127 0 255
0.36725241 -0.14978573 1.1650001 255 127 0 255
0.36947146 -0.14978573 1.1650001 255 127 0 255
0.37169048 -0.14978573 1.1650001 255 127 0 255
0.37390956 -0.14978573 1.1650001 255 127 0 255
0.37483716 -0.14927143 1.161 255 127 0 255
0.37574953 -0.14875714 1.1570001 255 127 0 255
0.37795335 -0.14875714 1.1570001 255 127 0 255
0.38147143 -0.14927143 1.161 255 127 0 255
0.38236099 -0.14875714 1.1570001 255 127 0 255
0.38456479 -0.14875714 1.1570001 255 127 0 255
0.38676858 -0.14875714 1.1570001 255 127 0 255
0.3889724 -0.14875714 1.1570001 255 127 0 255
0.39117619 -0.14875714 1.1570001 255 127 0 255
0.33213618 -0.15947334 1.2590001 255 127 0 255
0.33347145 -0.15896668 1.2550001 255 127 0 255
0.3345238 -0.15833333 1.25 255 127 0 255
0.33555713 -0.1577 1.245 255 127 0 255
0.33684289 -0.15719333 1.2410001 255 127 0 255
0.33784002 -0.15656 1.2360001 255 127 0 255
0.33909336 -0.15605335 1.2320001 255 127 0 255
0.34144002 -0.15605335 1.2320001 255 127 0 255
0.34239146 -0.15542001 1.2270001 255 127 0 255
0.34472859 -0.15542001 1.2270001 255 127 0 255
0.34480289 -0.15440668 1.2190001 255 127 0 255
0.34570098 -0.15377335 1.2140001 255 127 0 255
0.34801337 -0.15377335 1.2140001 255 127 0 255
0.34686285 -0.15225333 1.202 255 127 0 255
0.34770003 -0.15162 1.197 255 127 0 255
0.34881049 -0.15111333 1.1930001 255 127 0 255
0.3499057 -0.15060668 1.189 255 127 0 255
0.35217047 -0.15060668 1.189 255 127 0 255
0.35443524 -0.15060668 1.189 255 127 0 255
0.3567 -0.15060668 1.189 255 127 0 255
0.35896474 -0.15060668 1.189 255 127 0 255
0.36001429 -0.15010001 1.1850001 255 127 0 255
0.35982573 -0.14908667 1.177 255 127 0 255
0.35960665 -0.14807333 1.169 255 127 0 255
0.36183333 -0.14807333 1.169 255 127 0 255
0.36405998 -0.14807333 1.169 255 127 0 255
0.36628667 -0.14807333 1.169 255 127 0 255
0.36851332 -0.14807333 1.169 255 127 0 255
0.36947146 -0.14756668 1.1650001 255 127 0 255
0.37169048 -0.14756668 1.1650001 255 127 0 255
0.37390956 -0.14756668 1.1650001 255 127 0 255
0.37612858 -0.14756668 1.1650001 255 127 0 255
0.37574953 -0.14655334 1.1570001 255 127 0 255
0.37795335 -0.14655334 1.1570001 255 127 0 255
0.38147143 -0.14705999 1.161 255 127 0 255
0.38368285 -0.14705999 1.161 255 127 0 255
0.38456479 -0.14655334 1.1570001 255 127 0 255
0.38676858 -0.14655334 1.1570001 255 127 0 255
0.3889724 -0.14655334 1.1570001 255 127 0 255
0.39252856 -0.14705999 1.161 255 127 0 255
0.33693239 -0.15707524 1.2590001 255 127 0 255
0.33825243 -0.1565762 1.2550001 255 127 0 255
0.33792859 -0.15532857 1.245 255 127 0 255
0.3392067 -0.15482953 1.2410001 255 127 0 255
0.34019428 -0.15420572 1.2360001 255 127 0 255
0.34254858 -0.15420572 1.2360001 255 127 0 255
0.34378672 -0.15370668 1.2320001 255 127 0 255
0.34613335 -0.15370668 1.2320001 255 127 0 255
0.34706575 -0.15308286 1.2270001 255 127 0 255
0.34712479 -0.15208477 1.2190001 255 127 0 255
0.34944668 -0.15208477 1.2190001 255 127 0 255
0.34917143 -0.15096191 1.21 255 127 0 255
0.34915239 -0.14996381 1.202 255 127 0 255
0.35144192 -0.14996381 1.202 255 127 0 255
0.35226002 -0.14934 1.197 255 127 0 255
0.35453999 -0.14934 1.197 255 127 0 255
0.35562763 -0.14884095 1.1930001 255 127 0 255
0.35790002 -0.14884095 1.1930001 255 127 0 255
0.36017242 -0.14884095 1.1930001 255 127 0 255
0.36122954 -0.14834191 1.189 255 127 0 255
0.36349428 -0.14834191 1.189 255 127 0 255
0.3697581 -0.14996381 1.202 255 127 0 255
0.37328574 -0.15046287 1.2060001 255 127 0 255
0.37558287 -0.15046287 1.2060001 255 127 0 255
0.37788001 -0.15046287 1.2060001 255 127 0 255
0.38017717 -0.15046287 1.2060001 255 127 0 255
0.38501143 -0.15146096 1.2140001 255 127 0 255
0.37296668 -0.14584666 1.169 255 127 0 255
0.37519333 -0.14584666 1.169 255 127 0 255
0.37742001 -0.14584666 1.169 255 127 0 255
0.37834764 -0.14534763 1.1650001 255 127 0 255
0.38056669 -0.14534763 1.1650001 255 127 0 255
0.38278574 -0.14534763 1.1650001 255 127 0 255
0.38632667 -0.14584666 1.169 255 127 0 255
0.38722384 -0.14534763 1.1650001 255 127 0 255
0.38944289 -0.14534763 1.1650001 255 127 0 255
0.33933049 -0.15467715 1.2590001 255 127 0 255
0.34064287 -0.15418573 1.2550001 255 127 0 255
0.34029999 -0.15295714 1.245 255 127 0 255
0.3415705 -0.15246572 1.2410001 255 127 0 255
0.3439343 -0.15246572 1.2410001 255 127 0 255
0.34490287 -0.15185143 1.2360001 255 127 0 255
0.34725717 -0.15185143 1.2360001 255 127 0 255
0.34848002 -0.15136001 1.2320001 255 127 0 255
0.3494029 -0.15074573 1.2270001 255 127 0 255
0.35059336 -0.15025429 1.223 255 127 0 255
0.35032576 -0.14914858 1.2140001 255 127 0 255
0.35147619 -0.14865716 1.21 255 127 0 255
0.35261145 -0.14816572 1.2060001 255 127 0 255
0.35373142 -0.14767428 1.202 255 127 0 255
0.35602096 -0.14767428 1.202 255 127 0 255
0.35831049 -0.14767428 1.202 255 127 0 255
0.35910001 -0.14706001 1.197 255 127 0 255
0.36138001 -0.14706001 1.197 255 127 0 255
0.36366001 -0.14706001 1.197 255 127 0 255
0.36746857 -0.14767428 1.202 255 127 0 255
0.3697581 -0.14767428 1.202 255 127 0 255
0.37328574 -0.14816572 1.2060001 255 127 0 255
0.37558287 -0.14816572 1.2060001 255 127 0 255
0.37788001 -0.14816572 1.2060001 255 127 0 255
0.38269907 -0.14914858 1.2140001 255 127 0 255
0.38501143 -0.14914858 1.2140001 255 127 0 255
0.38604763 -0.14865716 1.21 255 127 0 255
0.38835239 -0.14865716 1.21 255 127 0 255
0.39065713 -0.14865716 1.21 255 127 0 255
0.3417286 -0.15227905 1.2590001 255 127 0 255
0.34166667 -0.15119047 1.25 255 127 0 255
0.34404761 -0.15119047 1.25 255 127 0 255
0.34504285 -0.15058571 1.245 255 127 0 255
0.3462981 -0.15010192 1.2410001 255 127 0 255
0.34866193 -0.15010192 1.2410001 255 127 0 255
0.34848002 -0.14901336 1.2320001 255 127 0 255
0.35082671 -0.14901336 1.2320001 255 127 0 255
0.35174003 -0.14840858 1.2270001 255 127 0 255
0.35292286 -0.14792477 1.223 255 127 0 255
0.35409051 -0.14744097 1.2190001 255 127 0 255
0.35378096 -0.14635238 1.21 255 127 0 255
0.35608572 -0.14635238 1.21 255 127 0 255
0.35720575 -0.14586858 1.2060001 255 127 0 255
0.35950288 -0.14586858 1.2060001 255 127 0 255
0.36180001 -0.14586858 1.2060001 255 127 0 255
0.36409718 -0.14586858 1.2060001 255 127 0 255
0.36639431 -0.14586858 1.2060001 255 127 0 255
0.36869147 -0.14586858 1.2060001 255 127 0 255
0.37098858 -0.14586858 1.2060001 255 127 0 255
0.37452382 -0.14635238 1.21 255 127 0 255
0.37682858 -0.14635238 1.21 255 127 0 255
0.37913334 -0.14635238 1.21 255 127 0 255
0.38269907 -0.14683619 1.2140001 255 127 0 255
0.38501143 -0.14683619 1.2140001 255 127 0 255
0.38604763 -0.14635238 1.21 255 127 0 255
0.38835239 -0.14635238 1.21 255 127 0 255
0.39065713 -0.14635238 1.21 255 127 0 255
0.34303334 -0.14940478 1.2550001 255 127 0 255
0.34404761 -0.14880952 1.25 255 127 0 255
0.34642857 -0.14880952 1.25 255 127 0 255
0.34741428 -0.14821428 1.245 255 127 0 255
0.34978572 -0.14821428 1.245 255 127 0 255
0.34961143 -0.14714286 1.2360001 255 127 0 255
0.35196573 -0.14714286 1.2360001 255 127 0 255
0.35317335 -0.14666668 1.2320001 255 127 0 255
0.35407716 -0.14607145 1.2270001 255 127 0 255
0.35641432 -0.14607145 1.2270001 255 127 0 255
0.35641241 -0.14511906 1.2190001 255 127 0 255
0.35726288 -0.14452383 1.2140001 255 127 0 255
0.35839048 -0.14404762 1.21 255 127 0 255
0.36069524 -0.14404762 1.21 255 127 0 255
0.36300001 -0.14404762 1.21 255 127 0 255
0.36530477 -0.14404762 1.21 255 127 0 255
0.36760953 -0.14404762 1.21 255 127 0 255
0.36991429 -0.14404762 1.21 255 127 0 255
0.37221906 -0.14404762 1.21 255 127 0 255
0.37452382 -0.14404762 1.21 255 127 0 255
0.37807432 -0.14452383 1.2140001 255 127 0 255
0.38038671 -0.14452383 1.2140001 255 127 0 255
0.38269907 -0.14452383 1.2140001 255 127 0 255
0.38374287 -0.14404762 1.21 255 127 0 255
0.38604763 -0.14404762 1.21 255 127 0 255
0.38835239 -0.14404762 1.21 255 127 0 255
0.34542385 -0.1470143 1.2550001 255 127 0 255
0.34781432 -0.1470143 1.2550001 255 127 0 255
0.34880951 -0.14642857 1.25 255 127 0 255
0.34978572 -0.14584285 1.245 255 127 0 255
0.35215715 -0.14584285 1.245 255 127 0 255
0.35338953 -0.14537428 1.2410001 255 127 0 255
0.35432002 -0.14478858 1.2360001 255 127 0 255
0.35552001 -0.14432001 1.2320001 255 127 0 255
0.3578667 -0.14432001 1.2320001 255 127 0 255
0.35875145 -0.14373431 1.2270001 255 127 0 255
0.35991144 -0.14326571 1.223 255 127 0 255
