ply
format ascii 1.0
comment PCL generated
element vertex 422
property float x
property float y
property float z
property uchar red
property uchar green
property uchar blue
property uchar alpha
element camera 1
property float view_px
property float view_py
property float view_pz
property float x_axisx
property float x_axisy
property float x_axisz
property float y_axisx
property float y_axisy
property float y_axisz
property float z_axisx
property float z_axisy
property float z_axisz
property float focal
property float scalex
property float scaley
property float centerx
property float centery
property int viewportx
property int viewporty
property float k1
property float k2
end_header
-0.036237143 -0.21412857 1.153 255 0 255 255
-0.033922859 -0.21338572 1.149 255 0 255 255
-0.031734288 -0.21338572 1.149 255 0 255 255
-0.029545715 -0.21338572 1.149 255 0 255 255
-0.027261905 -0.21264288 1.1450001 255 0 255 255
-0.024993334 -0.21190001 1.141 255 0 255 255
-0.02282 -0.21190001 1.141 255 0 255 255
-0.020646667 -0.21190001 1.141 255 0 255 255
-0.018538097 -0.21264288 1.1450001 255 0 255 255
-0.038433332 -0.21193239 1.153 255 0 255 255
-0.036237143 -0.21193239 1.153 255 0 255 255
-0.033922859 -0.21119714 1.149 255 0 255 255
-0.031734288 -0.21119714 1.149 255 0 255 255
-0.029545715 -0.21119714 1.149 255 0 255 255
-0.027261905 -0.21046191 1.1450001 255 0 255 255
-0.024993334 -0.20972668 1.141 255 0 255 255
-0.02282 -0.20972668 1.141 255 0 255 255
-0.020646667 -0.20972668 1.141 255 0 255 255
-0.018538097 -0.21046191 1.1450001 255 0 255 255
-0.0163 -0.20972668 1.141 255 0 255 255
-0.014126667 -0.20972668 1.141 255 0 255 255
-0.011921904 -0.20917524 1.138 255 0 255 255
-0.0097542861 -0.20917524 1.138 255 0 255 255
-0.040629521 -0.20973618 1.153 255 0 255 255
-0.038433332 -0.20973618 1.153 255 0 255 255
-0.036111429 -0.20900859 1.149 255 0 255 255
-0.033922859 -0.20900859 1.149 255 0 255 255
-0.031734288 -0.20900859 1.149 255 0 255 255
-0.029545715 -0.20900859 1.149 255 0 255 255
-0.027261905 -0.20828097 1.1450001 255 0 255 255
-0.024927618 -0.20700762 1.138 255 0 255 255
-0.02276 -0.20700762 1.138 255 0 255 255
-0.020719048 -0.20828097 1.1450001 255 0 255 255
-0.018538097 -0.20828097 1.1450001 255 0 255 255
-0.0163 -0.20755333 1.141 255 0 255 255
-0.014126667 -0.20755333 1.141 255 0 255 255
-0.011921904 -0.20700762 1.138 255 0 255 255
-0.0097542861 -0.20700762 1.138 255 0 255 255
-0.0075866668 -0.20700762 1.138 255 0 255 255
-0.0054523814 -0.20828097 1.1450001 255 0 255 255
0.0076333336 -0.20828097 1.1450001 255 0 255 255
0.0098142866 -0.20828097 1.1450001 255 0 255 255
0.011995239 -0.20828097 1.1450001 255 0 255 255
0.014176192 -0.20828097 1.1450001 255 0 255 255
0.016357144 -0.20828097 1.1450001 255 0 255 255
0.018538097 -0.20828097 1.1450001 255 0 255 255
0.020719048 -0.20828097 1.1450001 255 0 255 255
-0.040629521 -0.20753999 1.153 255 0 255 255
-0.0383 -0.20682001 1.149 255 0 255 255
-0.036111429 -0.20682001 1.149 255 0 255 255
-0.033804763 -0.20610002 1.1450001 255 0 255 255
-0.031623811 -0.20610002 1.1450001 255 0 255 255
-0.02944286 -0.20610002 1.1450001 255 0 255 255
-0.027261905 -0.20610002 1.1450001 255 0 255 255
-0.024927618 -0.20484 1.138 255 0 255 255
-0.02276 -0.20484 1.138 255 0 255 255
-0.020719048 -0.20610002 1.1450001 255 0 255 255
-0.018538097 -0.20610002 1.1450001 255 0 255 255
-0.016357144 -0.20610002 1.1450001 255 0 255 255
-0.014126667 -0.20537999 1.141 255 0 255 255
-0.011921904 -0.20484 1.138 255 0 255 255
-0.0097542861 -0.20484 1.138 255 0 255 255
-0.0075866668 -0.20484 1.138 255 0 255 255
-0.0054523814 -0.20610002 1.1450001 255 0 255 255
-0.0032828571 -0.20682001 1.149 255 0 255 255
0.0054904758 -0.20753999 1.153 255 0 255 255
0.0076333336 -0.20610002 1.1450001 255 0 255 255
0.0098142866 -0.20610002 1.1450001 255 0 255 255
0.011995239 -0.20610002 1.1450001 255 0 255 255
0.014176192 -0.20610002 1.1450001 255 0 255 255
0.016357144 -0.20610002 1.1450001 255 0 255 255
0.018538097 -0.20610002 1.1450001 255 0 255 255
0.020719048 -0.20610002 1.1450001 255 0 255 255
0.022900002 -0.20610002 1.1450001 255 0 255 255
-0.040629521 -0.2053438 1.153 255 0 255 255
-0.0383 -0.20463143 1.149 255 0 255 255
-0.035985716 -0.20391907 1.1450001 255 0 255 255
-0.033804763 -0.20391907 1.1450001 255 0 255 255
-0.031623811 -0.20391907 1.1450001 255 0 255 255
-0.02944286 -0.20391907 1.1450001 255 0 255 255
-0.027261905 -0.20391907 1.1450001 255 0 255 255
-0.024927618 -0.20267238 1.138 255 0 255 255
-0.02276 -0.20267238 1.138 255 0 255 255
-0.020719048 -0.20391907 1.1450001 255 0 255 255
-0.018538097 -0.20391907 1.1450001 255 0 255 255
-0.016357144 -0.20391907 1.1450001 255 0 255 255
-0.014176192 -0.20391907 1.1450001 255 0 255 255
-0.011953333 -0.20320667 1.141 255 0 255 255
-0.00978 -0.20320667 1.141 255 0 255 255
-0.007606667 -0.20320667 1.141 255 0 255 255
-0.0054714289 -0.20463143 1.149 255 0 255 255
-0.0032828571 -0.20463143 1.149 255 0 255 255
-0.0010942857 -0.20463143 1.149 255 0 255 255
0.0010942857 -0.20463143 1.149 255 0 255 255
0.0032828571 -0.20463143 1.149 255 0 255 255
0.0054904758 -0.2053438 1.153 255 0 255 255
0.0076333336 -0.20391907 1.1450001 255 0 255 255
0.0098142866 -0.20391907 1.1450001 255 0 255 255
0.011995239 -0.20391907 1.1450001 255 0 255 255
0.014176192 -0.20391907 1.1450001 255 0 255 255
0.016357144 -0.20391907 1.1450001 255 0 255 255
0.018538097 -0.20391907 1.1450001 255 0 255 255
0.020646667 -0.20320667 1.141 255 0 255 255
0.02282 -0.20320667 1.141 255 0 255 255
0.025080955 -0.20391907 1.1450001 255 0 255 255
-0.035985716 -0.2017381 1.1450001 255 0 255 255
-0.033804763 -0.2017381 1.1450001 255 0 255 255
-0.031513333 -0.20103334 1.141 255 0 255 255
-0.029340001 -0.20103334 1.141 255 0 255 255
-0.027166668 -0.20103334 1.141 255 0 255 255
-0.024927618 -0.20050476 1.138 255 0 255 255
-0.02276 -0.20050476 1.138 255 0 255 255
-0.020719048 -0.2017381 1.1450001 255 0 255 255
-0.018602857 -0.20244285 1.149 255 0 255 255
-0.016414287 -0.20244285 1.149 255 0 255 255
-0.014176192 -0.2017381 1.1450001 255 0 255 255
-0.011995239 -0.2017381 1.1450001 255 0 255 255
-0.0098142866 -0.2017381 1.1450001 255 0 255 255
-0.0076600001 -0.20244285 1.149 255 0 255 255
-0.0054714289 -0.20244285 1.149 255 0 255 255
-0.0032828571 -0.20244285 1.149 255 0 255 255
-0.0010942857 -0.20244285 1.149 255 0 255 255
0.0010942857 -0.20244285 1.149 255 0 255 255
0.0032828571 -0.20244285 1.149 255 0 255 255
0.0054904758 -0.20314761 1.153 255 0 255 255
0.0076333336 -0.2017381 1.1450001 255 0 255 255
0.0098142866 -0.2017381 1.1450001 255 0 255 255
0.011995239 -0.2017381 1.1450001 255 0 255 255
0.014176192 -0.2017381 1.1450001 255 0 255 255
0.016357144 -0.2017381 1.1450001 255 0 255 255
0.018538097 -0.2017381 1.1450001 255 0 255 255
0.020646667 -0.20103334 1.141 255 0 255 255
0.02282 -0.20103334 1.141 255 0 255 255
0.025080955 -0.2017381 1.1450001 255 0 255 255
0.027261905 -0.2017381 1.1450001 255 0 255 255
0.029648572 -0.20314761 1.153 255 0 255 255
-0.031513333 -0.19886 1.141 255 0 255 255
-0.029340001 -0.19886 1.141 255 0 255 255
-0.027166668 -0.19886 1.141 255 0 255 255
-0.024927618 -0.19833714 1.138 255 0 255 255
-0.02276 -0.19833714 1.138 255 0 255 255
-0.020719048 -0.19955716 1.1450001 255 0 255 255
-0.018538097 -0.19955716 1.1450001 255 0 255 255
-0.016414287 -0.20025429 1.149 255 0 255 255
-0.014225715 -0.20025429 1.149 255 0 255 255
-0.011995239 -0.19955716 1.1450001 255 0 255 255
-0.0098142866 -0.19955716 1.1450001 255 0 255 255
-0.0076600001 -0.20025429 1.149 255 0 255 255
-0.0054714289 -0.20025429 1.149 255 0 255 255
-0.0032828571 -0.20025429 1.149 255 0 255 255
-0.0010942857 -0.20025429 1.149 255 0 255 255
0.0010942857 -0.20025429 1.149 255 0 255 255
0.0032828571 -0.20025429 1.149 255 0 255 255
0.0054904758 -0.20095141 1.153 255 0 255 255
0.0076600001 -0.20025429 1.149 255 0 255 255
0.0098142866 -0.19955716 1.1450001 255 0 255 255
0.011995239 -0.19955716 1.1450001 255 0 255 255
0.014225715 -0.20025429 1.149 255 0 255 255
0.016357144 -0.19955716 1.1450001 255 0 255 255
0.018538097 -0.19955716 1.1450001 255 0 255 255
0.020719048 -0.19955716 1.1450001 255 0 255 255
0.022900002 -0.19955716 1.1450001 255 0 255 255
0.025080955 -0.19955716 1.1450001 255 0 255 255
0.027261905 -0.19955716 1.1450001 255 0 255 255
0.029545715 -0.20025429 1.149 255 0 255 255
-0.020719048 -0.19737621 1.1450001 255 0 255 255
-0.018538097 -0.19737621 1.1450001 255 0 255 255
-0.016414287 -0.19806573 1.149 255 0 255 255
-0.014225715 -0.19806573 1.149 255 0 255 255
-0.012037144 -0.19806573 1.149 255 0 255 255
-0.0098485723 -0.19806573 1.149 255 0 255 255
-0.0076866667 -0.19875523 1.153 255 0 255 255
-0.0054904758 -0.19875523 1.153 255 0 255 255
-0.0032942859 -0.19875523 1.153 255 0 255 255
-0.0010980952 -0.19875523 1.153 255 0 255 255
0.0010980952 -0.19875523 1.153 255 0 255 255
0.0032942859 -0.19875523 1.153 255 0 255 255
0.0054904758 -0.19875523 1.153 255 0 255 255
0.0076600001 -0.19806573 1.149 255 0 255 255
0.0098485723 -0.19806573 1.149 255 0 255 255
0.012037144 -0.19806573 1.149 255 0 255 255
0.014225715 -0.19806573 1.149 255 0 255 255
0.016414287 -0.19806573 1.149 255 0 255 255
0.018538097 -0.19737621 1.1450001 255 0 255 255
0.020719048 -0.19737621 1.1450001 255 0 255 255
0.022900002 -0.19737621 1.1450001 255 0 255 255
0.025080955 -0.19737621 1.1450001 255 0 255 255
0.027261905 -0.19737621 1.1450001 255 0 255 255
0.029545715 -0.19806573 1.149 255 0 255 255
-0.020719048 -0.19519526 1.1450001 255 0 255 255
-0.018538097 -0.19519526 1.1450001 255 0 255 255
-0.016414287 -0.19587715 1.149 255 0 255 255
-0.014225715 -0.19587715 1.149 255 0 255 255
-0.012037144 -0.19587715 1.149 255 0 255 255
-0.0098485723 -0.19587715 1.149 255 0 255 255
-0.0076866667 -0.19655904 1.153 255 0 255 255
-0.0054904758 -0.19655904 1.153 255 0 255 255
-0.0032942859 -0.19655904 1.153 255 0 255 255
-0.0010980952 -0.19655904 1.153 255 0 255 255
0.0010980952 -0.19655904 1.153 255 0 255 255
0.0032942859 -0.19655904 1.153 255 0 255 255
0.0054904758 -0.19655904 1.153 255 0 255 255
0.0076600001 -0.19587715 1.149 255 0 255 255
0.0098485723 -0.19587715 1.149 255 0 255 255
0.012037144 -0.19587715 1.149 255 0 255 255
0.014225715 -0.19587715 1.149 255 0 255 255
0.016414287 -0.19587715 1.149 255 0 255 255
0.018602857 -0.19587715 1.149 255 0 255 255
0.020719048 -0.19519526 1.1450001 255 0 255 255
0.022900002 -0.19519526 1.1450001 255 0 255 255
0.025080955 -0.19519526 1.1450001 255 0 255 255
0.027261905 -0.19519526 1.1450001 255 0 255 255
0.029545715 -0.19587715 1.149 255 0 255 255
-0.018602857 -0.19368857 1.149 255 0 255 255
-0.016414287 -0.19368857 1.149 255 0 255 255
-0.014225715 -0.19368857 1.149 255 0 255 255
-0.012079047 -0.19436285 1.153 255 0 255 255
-0.0098828571 -0.19436285 1.153 255 0 255 255
-0.0076866667 -0.19436285 1.153 255 0 255 255
-0.0054904758 -0.19436285 1.153 255 0 255 255
-0.0032942859 -0.19436285 1.153 255 0 255 255
-0.0010980952 -0.19436285 1.153 255 0 255 255
0.0010980952 -0.19436285 1.153 255 0 255 255
0.0032942859 -0.19436285 1.153 255 0 255 255
0.0054904758 -0.19436285 1.153 255 0 255 255
0.0076600001 -0.19368857 1.149 255 0 255 255
0.0098485723 -0.19368857 1.149 255 0 255 255
0.012037144 -0.19368857 1.149 255 0 255 255
0.014225715 -0.19368857 1.149 255 0 255 255
0.016414287 -0.19368857 1.149 255 0 255 255
0.018602857 -0.19368857 1.149 255 0 255 255
0.020719048 -0.19301431 1.1450001 255 0 255 255
0.022900002 -0.19301431 1.1450001 255 0 255 255
0.025080955 -0.19301431 1.1450001 255 0 255 255
-0.016471429 -0.19216666 1.153 255 0 255 255
-0.014275238 -0.19216666 1.153 255 0 255 255
-0.012079047 -0.19216666 1.153 255 0 255 255
-0.0098828571 -0.19216666 1.153 255 0 255 255
-0.0077133342 -0.19283333 1.1570001 255 0 255 255
-0.0055095241 -0.19283333 1.1570001 255 0 255 255
-0.0033057143 -0.19283333 1.1570001 255 0 255 255
-0.0011019048 -0.19283333 1.1570001 255 0 255 255
0.0010980952 -0.19216666 1.153 255 0 255 255
0.0032942859 -0.19216666 1.153 255 0 255 255
0.0054904758 -0.19216666 1.153 255 0 255 255
0.0076866667 -0.19216666 1.153 255 0 255 255
0.0098828571 -0.19216666 1.153 255 0 255 255
0.012079047 -0.19216666 1.153 255 0 255 255
0.014225715 -0.19150001 1.149 255 0 255 255
0.016414287 -0.19150001 1.149 255 0 255 255
0.018538097 -0.19083335 1.1450001 255 0 255 255
0.020719048 -0.19083335 1.1450001 255 0 255 255
0.022900002 -0.19083335 1.1450001 255 0 255 255
0.025080955 -0.19083335 1.1450001 255 0 255 255
-0.016528573 -0.19062953 1.1570001 255 0 255 255
-0.014324762 -0.19062953 1.1570001 255 0 255 255
-0.012120954 -0.19062953 1.1570001 255 0 255 255
-0.0099514285 -0.19128856 1.161 255 0 255 255
-0.0077399998 -0.19128856 1.161 255 0 255 255
-0.0055285715 -0.19128856 1.161 255 0 255 255
-0.0033171428 -0.19128856 1.161 255 0 255 255
-0.0011057142 -0.19128856 1.161 255 0 255 255
0.0011019048 -0.19062953 1.1570001 255 0 255 255
0.0033057143 -0.19062953 1.1570001 255 0 255 255
0.0055095241 -0.19062953 1.1570001 255 0 255 255
0.0077133342 -0.19062953 1.1570001 255 0 255 255
0.0098828571 -0.18997046 1.153 255 0 255 255
0.012079047 -0.18997046 1.153 255 0 255 255
0.014225715 -0.18931143 1.149 255 0 255 255
0.016414287 -0.18931143 1.149 255 0 255 255
0.018538097 -0.1886524 1.1450001 255 0 255 255
0.020719048 -0.1886524 1.1450001 255 0 255 255
0.022900002 -0.1886524 1.1450001 255 0 255 255
0.025080955 -0.1886524 1.1450001 255 0 255 255
-0.014324762 -0.18842572 1.1570001 255 0 255 255
-0.012120954 -0.18842572 1.1570001 255 0 255 255
-0.0099514285 -0.18907715 1.161 255 0 255 255
-0.0077399998 -0.18907715 1.161 255 0 255 255
-0.0055285715 -0.18907715 1.161 255 0 255 255
-0.0033171428 -0.18907715 1.161 255 0 255 255
-0.0011057142 -0.18907715 1.161 255 0 255 255
0.0011057142 -0.18907715 1.161 255 0 255 255
0.0033171428 -0.18907715 1.161 255 0 255 255
0.0055285715 -0.18907715 1.161 255 0 255 255
0.0077399998 -0.18907715 1.161 255 0 255 255
0.0099514285 -0.18907715 1.161 255 0 255 255
0.012079047 -0.18777429 1.153 255 0 255 255
0.014225715 -0.18712285 1.149 255 0 255 255
0.016414287 -0.18712285 1.149 255 0 255 255
0.018602857 -0.18712285 1.149 255 0 255 255
0.02079143 -0.18712285 1.149 255 0 255 255
-0.014275238 -0.18557809 1.153 255 0 255 255
-0.012079047 -0.18557809 1.153 255 0 255 255
-0.0099514285 -0.18686572 1.161 255 0 255 255
-0.0077666673 -0.18750954 1.1650001 255 0 255 255
-0.0055476194 -0.18750954 1.1650001 255 0 255 255
-0.0033285718 -0.18750954 1.1650001 255 0 255 255
-0.0011095239 -0.18750954 1.1650001 255 0 255 255
0.0011095239 -0.18750954 1.1650001 255 0 255 255
0.0033285718 -0.18750954 1.1650001 255 0 255 255
0.0055666668 -0.18815334 1.169 255 0 255 255
0.0077666673 -0.18750954 1.1650001 255 0 255 255
0.0099857152 -0.18750954 1.1650001 255 0 255 255
0.012120954 -0.18622191 1.1570001 255 0 255 255
0.014324762 -0.18622191 1.1570001 255 0 255 255
-0.014275238 -0.1833819 1.153 255 0 255 255
-0.012079047 -0.1833819 1.153 255 0 255 255
-0.0099514285 -0.1846543 1.161 255 0 255 255
-0.0077666673 -0.18529049 1.1650001 255 0 255 255
-0.0055476194 -0.18529049 1.1650001 255 0 255 255
-0.0033514288 -0.18656288 1.1730001 255 0 255 255
-0.001117143 -0.18656288 1.1730001 255 0 255 255
0.001117143 -0.18656288 1.1730001 255 0 255 255
0.0033514288 -0.18656288 1.1730001 255 0 255 255
0.0055857147 -0.18656288 1.1730001 255 0 255 255
0.0077933338 -0.18592668 1.169 255 0 255 255
0.0099857152 -0.18529049 1.1650001 255 0 255 255
0.012204763 -0.18529049 1.1650001 255 0 255 255
-0.012162857 -0.18244286 1.161 255 0 255 255
-0.0099514285 -0.18244286 1.161 255 0 255 255
-0.0078199999 -0.18432859 1.1730001 255 0 255 255
-0.0056428574 -0.1862143 1.1850001 255 0 255 255
-0.0033857145 -0.1862143 1.1850001 255 0 255 255
-0.0011285715 -0.1862143 1.1850001 255 0 255 255
0.001124762 -0.18558574 1.1810001 255 0 255 255
0.003374286 -0.18558574 1.1810001 255 0 255 255
0.00562381 -0.18558574 1.1810001 255 0 255 255
-0.010302857 -0.1865962 1.202 255 0 255 255
-0.0079799993 -0.18582 1.197 255 0 255 255
-0.0056809527 -0.18519907 1.1930001 255 0 255 255
-0.0034085717 -0.18519907 1.1930001 255 0 255 255
-0.0011323809 -0.18457811 1.189 255 0 255 255
0.0011323809 -0.18457811 1.189 255 0 255 255
0.0033857145 -0.18395716 1.1850001 255 0 255 255
0.0056428574 -0.18395716 1.1850001 255 0 255 255
-0.010302857 -0.18430667 1.202 255 0 255 255
-0.0079799993 -0.18354 1.197 255 0 255 255
-0.0057000001 -0.18354 1.197 255 0 255 255
-0.00342 -0.18354 1.197 255 0 255 255
-0.0011361905 -0.18292668 1.1930001 255 0 255 255
0.0011323809 -0.18231334 1.189 255 0 255 255
0.0033971427 -0.18231334 1.189 255 0 255 255
0.0056619048 -0.18231334 1.189 255 0 255 255
0.0079799993 -0.18354 1.197 255 0 255 255
-0.012906668 -0.18656002 1.2320001 255 0 255 255
-0.010337144 -0.18262286 1.2060001 255 0 255 255
-0.0080133341 -0.18201713 1.202 255 0 255 255
-0.0057238098 -0.18201713 1.202 255 0 255 255
-0.0034342855 -0.18201713 1.202 255 0 255 255
-0.0011400001 -0.18125999 1.197 255 0 255 255
0.0011400001 -0.18125999 1.197 255 0 255 255
0.00342 -0.18125999 1.197 255 0 255 255
0.0057000001 -0.18125999 1.197 255 0 255 255
0.0079799993 -0.18125999 1.197 255 0 255 255
-0.015364763 -0.18555905 1.2410001 255 0 255 255
-0.012906668 -0.18421334 1.2320001 255 0 255 255
-0.010371429 -0.1809238 1.21 255 0 255 255
-0.0080400007 -0.18032572 1.2060001 255 0 255 255
-0.0057428577 -0.18032572 1.2060001 255 0 255 255
-0.0034342855 -0.17972763 1.202 255 0 255 255
-0.0011447619 -0.17972763 1.202 255 0 255 255
0.0011447619 -0.17972763 1.202 255 0 255 255
0.0034342855 -0.17972763 1.202 255 0 255 255
0.0057238098 -0.17972763 1.202 255 0 255 255
0.0080400007 -0.18032572 1.2060001 255 0 255 255
-0.015364763 -0.18319525 1.2410001 255 0 255 255
-0.012948572 -0.18245716 1.2360001 255 0 255 255
-0.010517144 -0.18112858 1.2270001 255 0 255 255
-0.0080933347 -0.17920953 1.2140001 255 0 255 255
-0.005780953 -0.17920953 1.2140001 255 0 255 255
-0.0034685717 -0.17920953 1.2140001 255 0 255 255
-0.0011561905 -0.17920953 1.2140001 255 0 255 255
0.001152381 -0.17861904 1.21 255 0 255 255
0.003457143 -0.17861904 1.21 255 0 255 255
0.0057619051 -0.17861904 1.21 255 0 255 255
0.0080933347 -0.17920953 1.2140001 255 0 255 255
-0.015414285 -0.18141429 1.245 255 0 255 255
-0.013000953 -0.18083143 1.2410001 255 0 255 255
-0.010560001 -0.17952001 1.2320001 255 0 255 255
-0.0081800008 -0.17879145 1.2270001 255 0 255 255
-0.0058238097 -0.17820857 1.223 255 0 255 255
-0.0034828575 -0.17762573 1.2190001 255 0 255 255
-0.0011609525 -0.17762573 1.2190001 255 0 255 255
0.0011609525 -0.17762573 1.2190001 255 0 255 255
0.0034828575 -0.17762573 1.2190001 255 0 255 255
0.0058047622 -0.17762573 1.2190001 255 0 255 255
0.0081266677 -0.17762573 1.2190001 255 0 255 255
-0.015414285 -0.17904285 1.245 255 0 255 255
-0.013000953 -0.17846762 1.2410001 255 0 255 255
-0.010594286 -0.17774859 1.2360001 255 0 255 255
-0.0082133338 -0.17717335 1.2320001 255 0 255 255
-0.0058428575 -0.17645431 1.2270001 255 0 255 255
-0.0034942857 -0.17587905 1.223 255 0 255 255
-0.001164762 -0.17587905 1.223 255 0 255 255
0.001164762 -0.17587905 1.223 255 0 255 255
0.0034942857 -0.17587905 1.223 255 0 255 255
0.0058666673 -0.17717335 1.2320001 255 0 255 255
-0.013042857 -0.17667143 1.245 255 0 255 255
-0.010637144 -0.17610382 1.2410001 255 0 255 255
-0.0082400003 -0.17539428 1.2360001 255 0 255 255
-0.0058666673 -0.17482668 1.2320001 255 0 255 255
-0.0035200003 -0.17482668 1.2320001 255 0 255 255
-0.0011733334 -0.17482668 1.2320001 255 0 255 255
0.0011733334 -0.17482668 1.2320001 255 0 255 255
0.0035314288 -0.17539428 1.2360001 255 0 255 255
0.0059095239 -0.17610382 1.2410001 255 0 255 255
-0.013042857 -0.1743 1.245 255 0 255 255
-0.010671428 -0.1743 1.245 255 0 255 255
-0.0082733333 -0.17374 1.2410001 255 0 255 255
-0.0059095239 -0.17374 1.2410001 255 0 255 255
-0.0035314288 -0.17304002 1.2360001 255 0 255 255
-0.001177143 -0.17304002 1.2360001 255 0 255 255
0.001177143 -0.17304002 1.2360001 255 0 255 255
0.003557143 -0.1743 1.245 255 0 255 255
-0.010671428 -0.17192857 1.245 255 0 255 255
-0.0082999999 -0.17192857 1.245 255 0 255 255
-0.0059285713 -0.17192857 1.245 255 0 255 255
-0.003557143 -0.17192857 1.245 255 0 255 255
-0.0011857143 -0.17192857 1.245 255 0 255 255
0.0011857143 -0.17192857 1.245 255 0 255 255
0.003557143 -0.17192857 1.245 255 0 255 255
-0.0011857143 -0.16955714 1.245 255 0 255 255
0 0 0 1 0 0 0 1 0 0 0 1 0 0 0 0 0 422 1 0 0
