ply
format ascii 1.0
comment PCL generated
element vertex 992
property float x
property float y
property float z
property uchar red
property uchar green
property uchar blue
property uchar alpha
element camera 0
property float view_px
property float view_py
property float view_pz
property float x_axisx
property float x_axisy
property float x_axisz
property float y_axisx
property float y_axisy
property float y_axisz
property float z_axisx
property float z_axisy
property float z_axisz
property float focal
property float scalex
property float scaley
property float centerx
property float centery
property int viewportx
property int viewporty
property float k1
property float k2
end_header
0.074390478 -0.16814286 1.0700001 247 129 191 255
0.076428577 -0.16814286 1.0700001 247 129 191 255
-0.0010161905 -0.16563906 1.067 247 129 191 255
0.0010161905 -0.16563906 1.067 247 129 191 255
0.0030485715 -0.16563906 1.067 247 129 191 255
0.0050809523 -0.16563906 1.067 247 129 191 255
0.0071333335 -0.16610476 1.0700001 247 129 191 255
0.0091714282 -0.16610476 1.0700001 247 129 191 255
0.011240953 -0.16657048 1.0730001 247 129 191 255
0.013334286 -0.16719143 1.077 247 129 191 255
0.015385714 -0.16719143 1.077 247 129 191 255
0.017485715 -0.16765715 1.08 247 129 191 255
0.019542858 -0.16765715 1.08 247 129 191 255
0.021600001 -0.16765715 1.08 247 129 191 255
0.023744764 -0.16827811 1.0840001 247 129 191 255
0.02595238 -0.16920952 1.09 247 129 191 255
0.028028572 -0.16920952 1.09 247 129 191 255
0.030104762 -0.16920952 1.09 247 129 191 255
0.032299049 -0.1698305 1.0940001 247 129 191 255
0.034382861 -0.1698305 1.0940001 247 129 191 255
0.036566667 -0.17029619 1.097 247 129 191 255
0.03865619 -0.17029619 1.097 247 129 191 255
0.040745717 -0.17029619 1.097 247 129 191 255
0.042835239 -0.17029619 1.097 247 129 191 255
0.044924762 -0.17029619 1.097 247 129 191 255
0.046885718 -0.1698305 1.0940001 247 129 191 255
0.048969526 -0.1698305 1.0940001 247 129 191 255
0.050726667 -0.1687438 1.087 247 129 191 255
0.052797142 -0.1687438 1.087 247 129 191 255
0.054716196 -0.16827811 1.0840001 247 129 191 255
0.056414288 -0.16719143 1.077 247 129 191 255
0.058465712 -0.16719143 1.077 247 129 191 255
0.060292382 -0.16657048 1.0730001 247 129 191 255
0.062336192 -0.16657048 1.0730001 247 129 191 255
0.064380005 -0.16657048 1.0730001 247 129 191 255
0.066238098 -0.16610476 1.0700001 247 129 191 255
0.068276189 -0.16610476 1.0700001 247 129 191 255
0.070314288 -0.16610476 1.0700001 247 129 191 255
0.07235238 -0.16610476 1.0700001 247 129 191 255
0.074390478 -0.16610476 1.0700001 247 129 191 255
0.076428577 -0.16610476 1.0700001 247 129 191 255
-0.0030485715 -0.16360667 1.067 247 129 191 255
-0.0010161905 -0.16360667 1.067 247 129 191 255
0.0010161905 -0.16360667 1.067 247 129 191 255
0.0030485715 -0.16360667 1.067 247 129 191 255
0.0050809523 -0.16360667 1.067 247 129 191 255
0.0071133338 -0.16360667 1.067 247 129 191 255
0.0091714282 -0.16406667 1.0700001 247 129 191 255
0.011240953 -0.16452667 1.0730001 247 129 191 255
0.013284763 -0.16452667 1.0730001 247 129 191 255
0.015385714 -0.16514 1.077 247 129 191 255
0.017550478 -0.16621335 1.0840001 247 129 191 255
0.01961524 -0.16621335 1.0840001 247 129 191 255
0.021680001 -0.16621335 1.0840001 247 129 191 255
0.023810476 -0.16667333 1.087 247 129 191 255
0.026047621 -0.16774668 1.0940001 247 129 191 255
0.028131431 -0.16774668 1.0940001 247 129 191 255
0.030215241 -0.16774668 1.0940001 247 129 191 255
0.032299049 -0.16774668 1.0940001 247 129 191 255
0.034477144 -0.16820666 1.097 247 129 191 255
0.036700003 -0.16882001 1.1010001 247 129 191 255
0.038797144 -0.16882001 1.1010001 247 129 191 255
0.040894289 -0.16882001 1.1010001 247 129 191 255
0.04299143 -0.16882001 1.1010001 247 129 191 255
0.045088574 -0.16882001 1.1010001 247 129 191 255
0.047357146 -0.16943333 1.105 247 129 191 255
0.049461905 -0.16943333 1.105 247 129 191 255
0.051053338 -0.16774668 1.0940001 247 129 191 255
0.05313715 -0.16774668 1.0940001 247 129 191 255
0.054867618 -0.16667333 1.087 247 129 191 255
0.056780957 -0.16621335 1.0840001 247 129 191 255
0.05862857 -0.1656 1.08 247 129 191 255
0.060517143 -0.16514 1.077 247 129 191 255
0.062336192 -0.16452667 1.0730001 247 129 191 255
0.064380005 -0.16452667 1.0730001 247 129 191 255
0.066238098 -0.16406667 1.0700001 247 129 191 255
0.068276189 -0.16406667 1.0700001 247 129 191 255
0.070314288 -0.16406667 1.0700001 247 129 191 255
0.07214953 -0.16360667 1.067 247 129 191 255
0.074181899 -0.16360667 1.067 247 129 191 255
0.076428577 -0.16406667 1.0700001 247 129 191 255
-0.0050809523 -0.16157429 1.067 247 129 191 255
-0.0030485715 -0.16157429 1.067 247 129 191 255
-0.0010161905 -0.16157429 1.067 247 129 191 255
0.0010161905 -0.16157429 1.067 247 129 191 255
0.0030485715 -0.16157429 1.067 247 129 191 255
0.0050809523 -0.16157429 1.067 247 129 191 255
0.0071133338 -0.16157429 1.067 247 129 191 255
0.0091714282 -0.16202858 1.0700001 247 129 191 255
0.011240953 -0.16248286 1.0730001 247 129 191 255
0.013284763 -0.16248286 1.0730001 247 129 191 255
0.015385714 -0.16308856 1.077 247 129 191 255
0.017550478 -0.16414858 1.0840001 247 129 191 255
0.01961524 -0.16414858 1.0840001 247 129 191 255
0.021739999 -0.16460286 1.087 247 129 191 255
0.023963811 -0.16566287 1.0940001 247 129 191 255
0.026119046 -0.16611715 1.097 247 129 191 255
0.028131431 -0.16566287 1.0940001 247 129 191 255
0.030215241 -0.16566287 1.0940001 247 129 191 255
0.032387618 -0.16611715 1.097 247 129 191 255
0.034477144 -0.16611715 1.097 247 129 191 255
0.036833331 -0.16732858 1.105 247 129 191 255
0.038938098 -0.16732858 1.105 247 129 191 255
0.041042857 -0.16732858 1.105 247 129 191 255
0.04314762 -0.16732858 1.105 247 129 191 255
0.045252379 -0.16732858 1.105 247 129 191 255
0.047485713 -0.16778287 1.108 247 129 191 255
0.049461905 -0.16732858 1.105 247 129 191 255
0.051380005 -0.16672286 1.1010001 247 129 191 255
0.053282857 -0.16611715 1.097 247 129 191 255
0.055220958 -0.16566287 1.0940001 247 129 191 255
0.057095237 -0.16505715 1.09 247 129 191 255
0.058845717 -0.16414858 1.0840001 247 129 191 255
0.060685717 -0.16354285 1.08 247 129 191 255
0.062568568 -0.16308856 1.077 247 129 191 255
0.064380005 -0.16248286 1.0730001 247 129 191 255
0.066238098 -0.16202858 1.0700001 247 129 191 255
0.068276189 -0.16202858 1.0700001 247 129 191 255
0.070314288 -0.16202858 1.0700001 247 129 191 255
0.07214953 -0.16157429 1.067 247 129 191 255
0.074181899 -0.16157429 1.067 247 129 191 255
0.076214284 -0.16157429 1.067 247 129 191 255
0.078246668 -0.16157429 1.067 247 129 191 255
-0.0071133338 -0.15954192 1.067 247 129 191 255
-0.0050809523 -0.15954192 1.067 247 129 191 255
-0.0030485715 -0.15954192 1.067 247 129 191 255
-0.0010161905 -0.15954192 1.067 247 129 191 255
0.0010161905 -0.15954192 1.067 247 129 191 255
0.0030485715 -0.15954192 1.067 247 129 191 255
0.0050809523 -0.15954192 1.067 247 129 191 255
0.0071133338 -0.15954192 1.067 247 129 191 255
0.0091714282 -0.15999047 1.0700001 247 129 191 255
0.011282858 -0.16103715 1.077 247 129 191 255
0.013371429 -0.16148573 1.08 247 129 191 255
0.015528572 -0.16253237 1.087 247 129 191 255
0.01764762 -0.16298096 1.09 247 129 191 255
0.01972381 -0.16298096 1.09 247 129 191 255
0.0218 -0.16298096 1.09 247 129 191 255
0.023963811 -0.16357906 1.0940001 247 129 191 255
0.026119046 -0.16402762 1.097 247 129 191 255
0.028208571 -0.16402762 1.097 247 129 191 255
0.031513333 -0.17060667 1.141 247 129 191 255
0.033686668 -0.17060667 1.141 247 129 191 255
0.035640001 -0.16956 1.1340001 247 129 191 255
0.037800003 -0.16956 1.1340001 247 129 191 255
0.03904381 -0.16567239 1.108 247 129 191 255
0.041154288 -0.16567239 1.108 247 129 191 255
0.043264762 -0.16567239 1.108 247 129 191 255
0.045375239 -0.16567239 1.108 247 129 191 255
0.047657147 -0.16627049 1.1120001 247 129 191 255
0.049775243 -0.16627049 1.1120001 247 129 191 255
0.051706668 -0.16567239 1.108 247 129 191 255
0.053671427 -0.16522381 1.105 247 129 191 255
0.05557429 -0.16462572 1.1010001 247 129 191 255
0.057461902 -0.16402762 1.097 247 129 191 255
0.059171431 -0.16298096 1.09 247 129 191 255
0.060910482 -0.16208382 1.0840001 247 129 191 255
0.062742859 -0.16148573 1.08 247 129 191 255
0.064800002 -0.16148573 1.08 247 129 191 255
0.066671431 -0.16103715 1.077 247 129 191 255
0.068467624 -0.16043906 1.0730001 247 129 191 255
0.070314288 -0.15999047 1.0700001 247 129 191 255
0.07214953 -0.15954192 1.067 247 129 191 255
0.074181899 -0.15954192 1.067 247 129 191 255
0.076214284 -0.15954192 1.067 247 129 191 255
0.078246668 -0.15954192 1.067 247 129 191 255
0.080279045 -0.15954192 1.067 247 129 191 255
-0.0071133338 -0.15750954 1.067 247 129 191 255
-0.0050809523 -0.15750954 1.067 247 129 191 255
-0.0030485715 -0.15750954 1.067 247 129 191 255
-0.0010161905 -0.15750954 1.067 247 129 191 255
0.0010161905 -0.15750954 1.067 247 129 191 255
0.0030485715 -0.15750954 1.067 247 129 191 255
0.0050809523 -0.15750954 1.067 247 129 191 255
0.0071333335 -0.15795238 1.0700001 247 129 191 255
0.0091714282 -0.15795238 1.0700001 247 129 191 255
0.011460953 -0.16149525 1.0940001 247 129 191 255
0.013544763 -0.16149525 1.0940001 247 129 191 255
0.015628573 -0.16149525 1.0940001 247 129 191 255
0.017712383 -0.16149525 1.0940001 247 129 191 255
0.019796191 -0.16149525 1.0940001 247 129 191 255
0.021880003 -0.16149525 1.0940001 247 129 191 255
0.023963811 -0.16149525 1.0940001 247 129 191 255
0.026047621 -0.16149525 1.0940001 247 129 191 255
0.029340001 -0.16843334 1.141 247 129 191 255
0.031513333 -0.16843334 1.141 247 129 191 255
0.033686668 -0.16843334 1.141 247 129 191 255
0.035765715 -0.16799048 1.138 247 129 191 255
0.037800003 -0.1674 1.1340001 247 129 191 255
0.039960004 -0.1674 1.1340001 247 129 191 255
0.042120002 -0.1674 1.1340001 247 129 191 255
0.044280004 -0.1674 1.1340001 247 129 191 255
0.045661904 -0.16459523 1.115 247 129 191 255
0.047785714 -0.16459523 1.115 247 129 191 255
0.049775243 -0.1641524 1.1120001 247 129 191 255
0.051893339 -0.1641524 1.1120001 247 129 191 255
0.054011434 -0.1641524 1.1120001 247 129 191 255
0.055776194 -0.16311905 1.105 247 129 191 255
0.057880953 -0.16311905 1.105 247 129 191 255
0.059768576 -0.16252859 1.1010001 247 129 191 255
0.061472386 -0.16149525 1.0940001 247 129 191 255
0.062975243 -0.16001907 1.0840001 247 129 191 255
0.064800002 -0.15942858 1.08 247 129 191 255
0.066857144 -0.15942858 1.08 247 129 191 255
0.068722859 -0.1589857 1.077 247 129 191 255
0.070314288 -0.15795238 1.0700001 247 129 191 255
0.07235238 -0.15795238 1.0700001 247 129 191 255
0.074390478 -0.15795238 1.0700001 247 129 191 255
0.076214284 -0.15750954 1.067 247 129 191 255
0.077953339 -0.15691906 1.0630001 247 129 191 255
0.079978101 -0.15691906 1.0630001 247 129 191 255
0.082002863 -0.15691906 1.0630001 247 129 191 255
-0.0071133338 -0.15547715 1.067 247 129 191 255
-0.0050619054 -0.15489429 1.0630001 247 129 191 255
-0.003037143 -0.15489429 1.0630001 247 129 191 255
-0.0010161905 -0.15547715 1.067 247 129 191 255
0.0010161905 -0.15547715 1.067 247 129 191 255
0.0030485715 -0.15547715 1.067 247 129 191 255
0.0050809523 -0.15547715 1.067 247 129 191 255
0.0071133338 -0.15547715 1.067 247 129 191 255
0.0091457143 -0.15547715 1.067 247 129 191 255
0.011921904 -0.16582285 1.138 247 129 191 255
0.014089524 -0.16582285 1.138 247 129 191 255
0.016257143 -0.16582285 1.138 247 129 191 255
0.018360002 -0.16524 1.1340001 247 129 191 255
0.020520002 -0.16524 1.1340001 247 129 191 255
0.022900002 -0.16684286 1.1450001 247 129 191 255
0.025080955 -0.16684286 1.1450001 247 129 191 255
0.027261905 -0.16684286 1.1450001 247 129 191 255
0.029340001 -0.16625999 1.141 247 129 191 255
0.031513333 -0.16625999 1.141 247 129 191 255
0.033686668 -0.16625999 1.141 247 129 191 255
0.035765715 -0.16582285 1.138 247 129 191 255
0.037933335 -0.16582285 1.138 247 129 191 255
0.039960004 -0.16524 1.1340001 247 129 191 255
0.042120002 -0.16524 1.1340001 247 129 191 255
0.044280004 -0.16524 1.1340001 247 129 191 255
0.045989525 -0.16363715 1.123 247 129 191 255
0.047785714 -0.16247143 1.115 247 129 191 255
0.049909521 -0.16247143 1.115 247 129 191 255
0.051893339 -0.1620343 1.1120001 247 129 191 255
0.054011434 -0.1620343 1.1120001 247 129 191 255
0.055927619 -0.16145143 1.108 247 129 191 255
0.057880953 -0.16101429 1.105 247 129 191 255
0.059768576 -0.16043144 1.1010001 247 129 191 255
0.061640952 -0.15984857 1.097 247 129 191 255
0.063556202 -0.15941145 1.0940001 247 129 191 255
0.065219998 -0.15839143 1.087 247 129 191 255
0.066857144 -0.15737143 1.08 247 129 191 255
0.068722859 -0.15693429 1.077 247 129 191 255
0.070314288 -0.15591429 1.0700001 247 129 191 255
0.07235238 -0.15591429 1.0700001 247 129 191 255
0.074390478 -0.15591429 1.0700001 247 129 191 255
0.076214284 -0.15547715 1.067 247 129 191 255
0.077953339 -0.15489429 1.0630001 247 129 191 255
0.079978101 -0.15489429 1.0630001 247 129 191 255
0.082002863 -0.15489429 1.0630001 247 129 191 255
-0.0091114286 -0.15286954 1.0630001 247 129 191 255
-0.0070866672 -0.15286954 1.0630001 247 129 191 255
-0.0050619054 -0.15286954 1.0630001 247 129 191 255
-0.003037143 -0.15286954 1.0630001 247 129 191 255
-0.001012381 -0.15286954 1.0630001 247 129 191 255
0.001012381 -0.15286954 1.0630001 247 129 191 255
0.0030485715 -0.15344477 1.067 247 129 191 255
0.0050809523 -0.15344477 1.067 247 129 191 255
0.0071133338 -0.15344477 1.067 247 129 191 255
0.0097542861 -0.16365524 1.138 247 129 191 255
0.011921904 -0.16365524 1.138 247 129 191 255
0.014089524 -0.16365524 1.138 247 129 191 255
0.016257143 -0.16365524 1.138 247 129 191 255
0.018360002 -0.16308001 1.1340001 247 129 191 255
0.020520002 -0.16308001 1.1340001 247 129 191 255
0.022900002 -0.16466193 1.1450001 247 129 191 255
0.025080955 -0.16466193 1.1450001 247 129 191 255
0.027261905 -0.16466193 1.1450001 247 129 191 255
0.02944286 -0.16466193 1.1450001 247 129 191 255
0.031513333 -0.16408667 1.141 247 129 191 255
0.033686668 -0.16408667 1.141 247 129 191 255
0.035985716 -0.16466193 1.1450001 247 129 191 255
0.038033333 -0.16408667 1.141 247 129 191 255
0.040100951 -0.16365524 1.138 247 129 191 255
0.042268571 -0.16365524 1.138 247 129 191 255
0.04443619 -0.16365524 1.138 247 129 191 255
0.046440002 -0.16308001 1.1340001 247 129 191 255
0.048428569 -0.16250476 1.13 247 129 191 255
0.050401904 -0.16192952 1.126 247 129 191 255
0.052406665 -0.16149808 1.123 247 129 191 255
0.05435143 -0.16092287 1.1190001 247 129 191 255
0.056280952 -0.16034763 1.115 247 129 191 255
0.058404762 -0.16034763 1.115 247 129 191 255
0.060528573 -0.16034763 1.115 247 129 191 255
0.062652387 -0.16034763 1.115 247 129 191 255
0.063730478 -0.15775906 1.097 247 129 191 255
0.065400004 -0.15675239 1.09 247 129 191 255
0.067104764 -0.15588954 1.0840001 247 129 191 255
0.068914287 -0.15531428 1.08 247 129 191 255
0.070314288 -0.1538762 1.0700001 247 129 191 255
0.07235238 -0.1538762 1.0700001 247 129 191 255
0.074390478 -0.1538762 1.0700001 247 129 191 255
0.076428577 -0.1538762 1.0700001 247 129 191 255
0.078246668 -0.15344477 1.067 247 129 191 255
0.079978101 -0.15286954 1.0630001 247 129 191 255
0.082002863 -0.15286954 1.0630001 247 129 191 255
0.084027618 -0.15286954 1.0630001 247 129 191 255
-0.0091114286 -0.15084477 1.0630001 247 129 191 255
-0.0070866672 -0.15084477 1.0630001 247 129 191 255
-0.0050619054 -0.15084477 1.0630001 247 129 191 255
-0.003037143 -0.15084477 1.0630001 247 129 191 255
-0.001012381 -0.15084477 1.0630001 247 129 191 255
0.001012381 -0.15084477 1.0630001 247 129 191 255
0.0030485715 -0.15141238 1.067 247 129 191 255
0.0050809523 -0.15141238 1.067 247 129 191 255
0.0071133338 -0.15141238 1.067 247 129 191 255
0.0097542861 -0.16148761 1.138 247 129 191 255
0.011921904 -0.16148761 1.138 247 129 191 255
0.014089524 -0.16148761 1.138 247 129 191 255
0.016257143 -0.16148761 1.138 247 129 191 255
0.018360002 -0.16091999 1.1340001 247 129 191 255
0.020520002 -0.16091999 1.1340001 247 129 191 255
0.022900002 -0.16248097 1.1450001 247 129 191 255
0.025080955 -0.16248097 1.1450001 247 129 191 255
0.027261905 -0.16248097 1.1450001 247 129 191 255
0.02944286 -0.16248097 1.1450001 247 129 191 255
0.031623811 -0.16248097 1.1450001 247 129 191 255
0.033804763 -0.16248097 1.1450001 247 129 191 255
0.035985716 -0.16248097 1.1450001 247 129 191 255
0.038166672 -0.16248097 1.1450001 247 129 191 255
0.040206671 -0.16191334 1.141 247 129 191 255
0.042380001 -0.16191334 1.141 247 129 191 255
0.044553336 -0.16191334 1.141 247 129 191 255
0.046726666 -0.16191334 1.141 247 129 191 255
0.049071435 -0.16248097 1.1450001 247 129 191 255
0.051252387 -0.16248097 1.1450001 247 129 191 255
0.052546669 -0.15978476 1.126 247 129 191 255
0.054545715 -0.15935905 1.123 247 129 191 255
0.056482859 -0.15879144 1.1190001 247 129 191 255
0.058404762 -0.15822381 1.115 247 129 191 255
0.060528573 -0.15822381 1.115 247 129 191 255
0.062652387 -0.15822381 1.115 247 129 191 255
0.06477619 -0.15822381 1.115 247 129 191 255
0.065640002 -0.15524381 1.0940001 247 129 191 255
0.067476191 -0.1546762 1.09 247 129 191 255
0.069552377 -0.1546762 1.09 247 129 191 255
0.070774287 -0.15283144 1.077 247 129 191 255
0.072825715 -0.15283144 1.077 247 129 191 255
0.07459905 -0.15226382 1.0730001 247 129 191 255
0.076428577 -0.15183809 1.0700001 247 129 191 255
0.078246668 -0.15141238 1.067 247 129 191 255
0.079978101 -0.15084477 1.0630001 247 129 191 255
0.082002863 -0.15084477 1.0630001 247 129 191 255
0.084027618 -0.15084477 1.0630001 247 129 191 255
-0.011136191 -0.14882001 1.0630001 247 129 191 255
-0.0091114286 -0.14882001 1.0630001 247 129 191 255
-0.0070866672 -0.14882001 1.0630001 247 129 191 255
-0.0050619054 -0.14882001 1.0630001 247 129 191 255
-0.003037143 -0.14882001 1.0630001 247 129 191 255
-0.0010161905 -0.14938 1.067 247 129 191 255
0.0010161905 -0.14938 1.067 247 129 191 255
0.0030485715 -0.14938 1.067 247 129 191 255
0.0050809523 -0.14938 1.067 247 129 191 255
0.0076866667 -0.16142 1.153 247 129 191 255
0.0098485723 -0.16086 1.149 247 129 191 255
0.011921904 -0.15932 1.138 247 129 191 255
0.014089524 -0.15932 1.138 247 129 191 255
0.016257143 -0.15932 1.138 247 129 191 255
0.018424762 -0.15932 1.138 247 129 191 255
0.02059238 -0.15932 1.138 247 129 191 255
0.022900002 -0.16030002 1.1450001 247 129 191 255
0.025080955 -0.16030002 1.1450001 247 129 191 255
0.027261905 -0.16030002 1.1450001 247 129 191 255
0.02944286 -0.16030002 1.1450001 247 129 191 255
0.031623811 -0.16030002 1.1450001 247 129 191 255
0.033804763 -0.16030002 1.1450001 247 129 191 255
0.035985716 -0.16030002 1.1450001 247 129 191 255
0.038166672 -0.16030002 1.1450001 247 129 191 255
0.040347625 -0.16030002 1.1450001 247 129 191 255
0.042528573 -0.16030002 1.1450001 247 129 191 255
0.044709526 -0.16030002 1.1450001 247 129 191 255
0.046890479 -0.16030002 1.1450001 247 129 191 255
0.049071435 -0.16030002 1.1450001 247 129 191 255
0.051252387 -0.16030002 1.1450001 247 129 191 255
0.052920002 -0.15876001 1.1340001 247 129 191 255
0.055080004 -0.15876001 1.1340001 247 129 191 255
0.056684762 -0.15722001 1.123 247 129 191 255
0.058823813 -0.15722001 1.123 247 129 191 255
0.06096286 -0.15722001 1.123 247 129 191 255
0.062877148 -0.15666001 1.1190001 247 129 191 255
0.065008573 -0.15666001 1.1190001 247 129 191 255
0.065820001 -0.15358 1.097 247 129 191 255
0.067723818 -0.15316001 1.0940001 247 129 191 255
0.069552377 -0.15260001 1.09 247 129 191 255
0.070774287 -0.15077999 1.077 247 129 191 255
0.072825715 -0.15077999 1.077 247 129 191 255
0.07459905 -0.15022002 1.0730001 247 129 191 255
0.076428577 -0.1498 1.0700001 247 129 191 255
0.078246668 -0.14938 1.067 247 129 191 255
0.079978101 -0.14882001 1.0630001 247 129 191 255
0.082002863 -0.14882001 1.0630001 247 129 191 255
0.084027618 -0.14882001 1.0630001 247 129 191 255
-0.011136191 -0.14679524 1.0630001 247 129 191 255
-0.0091114286 -0.14679524 1.0630001 247 129 191 255
-0.0070866672 -0.14679524 1.0630001 247 129 191 255
-0.0050619054 -0.14679524 1.0630001 247 129 191 255
-0.0030485715 -0.14734763 1.067 247 129 191 255
-0.0010161905 -0.14734763 1.067 247 129 191 255
0.0010161905 -0.14734763 1.067 247 129 191 255
0.0030485715 -0.14734763 1.067 247 129 191 255
0.0050809523 -0.14734763 1.067 247 129 191 255
0.0076866667 -0.15922381 1.153 247 129 191 255
0.0098485723 -0.15867144 1.149 247 129 191 255
0.012037144 -0.15867144 1.149 247 129 191 255
0.014176192 -0.15811905 1.1450001 247 129 191 255
0.016357144 -0.15811905 1.1450001 247 129 191 255
0.018538097 -0.15811905 1.1450001 247 129 191 255
0.020719048 -0.15811905 1.1450001 247 129 191 255
0.022900002 -0.15811905 1.1450001 247 129 191 255
0.025080955 -0.15811905 1.1450001 247 129 191 255
0.027261905 -0.15811905 1.1450001 247 129 191 255
0.02944286 -0.15811905 1.1450001 247 129 191 255
0.031623811 -0.15811905 1.1450001 247 129 191 255
0.033804763 -0.15811905 1.1450001 247 129 191 255
0.035985716 -0.15811905 1.1450001 247 129 191 255
0.038166672 -0.15811905 1.1450001 247 129 191 255
0.040347625 -0.15811905 1.1450001 247 129 191 255
0.042677142 -0.15867144 1.149 247 129 191 255
0.044865716 -0.15867144 1.149 247 129 191 255
0.047054287 -0.15867144 1.149 247 129 191 255
0.049071435 -0.15811905 1.1450001 247 129 191 255
0.051252387 -0.15811905 1.1450001 247 129 191 255
0.053246666 -0.15756667 1.141 247 129 191 255
0.05542 -0.15756667 1.141 247 129 191 255
0.057441905 -0.15715237 1.138 247 129 191 255
0.058980957 -0.15549524 1.126 247 129 191 255
0.061125714 -0.15549524 1.126 247 129 191 255
0.063270479 -0.15549524 1.126 247 129 191 255
0.065240949 -0.15508096 1.123 247 129 191 255
0.067379996 -0.15508096 1.123 247 129 191 255
0.06902381 -0.15397619 1.115 247 129 191 255
0.069807619 -0.15107621 1.0940001 247 129 191 255
0.070971429 -0.14914286 1.08 247 129 191 255
0.072825715 -0.14872858 1.077 247 129 191 255
0.07459905 -0.14817619 1.0730001 247 129 191 255
0.076428577 -0.14776191 1.0700001 247 129 191 255
0.078246668 -0.14734763 1.067 247 129 191 255
0.079978101 -0.14679524 1.0630001 247 129 191 255
0.082002863 -0.14679524 1.0630001 247 129 191 255
0.084027618 -0.14679524 1.0630001 247 129 191 255
-0.011136191 -0.14477049 1.0630001 247 129 191 255
-0.0091114286 -0.14477049 1.0630001 247 129 191 255
-0.0070866672 -0.14477049 1.0630001 247 129 191 255
-0.0050619054 -0.14477049 1.0630001 247 129 191 255
-0.003037143 -0.14477049 1.0630001 247 129 191 255
-0.001012381 -0.14477049 1.0630001 247 129 191 255
0.001012381 -0.14477049 1.0630001 247 129 191 255
0.0030485715 -0.14531524 1.067 247 129 191 255
0.0054714289 -0.15648286 1.149 247 129 191 255
0.0076600001 -0.15648286 1.149 247 129 191 255
0.0098485723 -0.15648286 1.149 247 129 191 255
0.012037144 -0.15648286 1.149 247 129 191 255
0.014225715 -0.15648286 1.149 247 129 191 255
0.016414287 -0.15648286 1.149 247 129 191 255
0.018602857 -0.15648286 1.149 247 129 191 255
0.02079143 -0.15648286 1.149 247 129 191 255
0.022980001 -0.15648286 1.149 247 129 191 255
0.025168573 -0.15648286 1.149 247 129 191 255
0.027261905 -0.1559381 1.1450001 247 129 191 255
0.02944286 -0.1559381 1.1450001 247 129 191 255
0.031734288 -0.15648286 1.149 247 129 191 255
0.033922859 -0.15648286 1.149 247 129 191 255
0.036111429 -0.15648286 1.149 247 129 191 255
0.0383 -0.15648286 1.149 247 129 191 255
0.040488571 -0.15648286 1.149 247 129 191 255
0.042677142 -0.15648286 1.149 247 129 191 255
0.044865716 -0.15648286 1.149 247 129 191 255
0.047054287 -0.15648286 1.149 247 129 191 255
0.049242858 -0.15648286 1.149 247 129 191 255
0.051252387 -0.1559381 1.1450001 247 129 191 255
0.053433336 -0.1559381 1.1450001 247 129 191 255
0.055614289 -0.1559381 1.1450001 247 129 191 255
0.057593334 -0.15539335 1.141 247 129 191 255
0.059400003 -0.15444 1.1340001 247 129 191 255
0.061560001 -0.15444 1.1340001 247 129 191 255
0.063720003 -0.15444 1.1340001 247 129 191 255
0.065415241 -0.15335047 1.126 247 129 191 255
0.067379996 -0.15294191 1.123 247 129 191 255
0.06902381 -0.15185238 1.115 247 129 191 255
0.070700951 -0.15089905 1.108 247 129 191 255
0.070971429 -0.14708571 1.08 247 129 191 255
0.072825715 -0.14667714 1.077 247 129 191 255
0.074390478 -0.14572382 1.0700001 247 129 191 255
0.076428577 -0.14572382 1.0700001 247 129 191 255
0.078246668 -0.14531524 1.067 247 129 191 255
0.079978101 -0.14477049 1.0630001 247 129 191 255
0.082002863 -0.14477049 1.0630001 247 129 191 255
0.084027618 -0.14477049 1.0630001 247 129 191 255
-0.011136191 -0.14274572 1.0630001 247 129 191 255
-0.0091114286 -0.14274572 1.0630001 247 129 191 255
-0.0070866672 -0.14274572 1.0630001 247 129 191 255
-0.0050619054 -0.14274572 1.0630001 247 129 191 255
-0.003037143 -0.14274572 1.0630001 247 129 191 255
-0.001012381 -0.14274572 1.0630001 247 129 191 255
0.001012381 -0.14274572 1.0630001 247 129 191 255
0.003037143 -0.14274572 1.0630001 247 129 191 255
0.0054714289 -0.15429428 1.149 247 129 191 255
0.0076600001 -0.15429428 1.149 247 129 191 255
0.0098485723 -0.15429428 1.149 247 129 191 255
0.012037144 -0.15429428 1.149 247 129 191 255
0.014225715 -0.15429428 1.149 247 129 191 255
0.016414287 -0.15429428 1.149 247 129 191 255
0.018602857 -0.15429428 1.149 247 129 191 255
0.02079143 -0.15429428 1.149 247 129 191 255
0.022980001 -0.15429428 1.149 247 129 191 255
0.025168573 -0.15429428 1.149 247 129 191 255
0.027357142 -0.15429428 1.149 247 129 191 255
0.029545715 -0.15429428 1.149 247 129 191 255
0.031734288 -0.15429428 1.149 247 129 191 255
0.033922859 -0.15429428 1.149 247 129 191 255
0.036111429 -0.15429428 1.149 247 129 191 255
0.0383 -0.15429428 1.149 247 129 191 255
0.040488571 -0.15429428 1.149 247 129 191 255
0.042677142 -0.15429428 1.149 247 129 191 255
0.044865716 -0.15429428 1.149 247 129 191 255
0.047054287 -0.15429428 1.149 247 129 191 255
0.049242858 -0.15429428 1.149 247 129 191 255
0.051431429 -0.15429428 1.149 247 129 191 255
0.053433336 -0.15375715 1.1450001 247 129 191 255
0.055614289 -0.15375715 1.1450001 247 129 191 255
0.057795241 -0.15375715 1.1450001 247 129 191 255
0.059766669 -0.15322001 1.141 247 129 191 255
0.061777141 -0.15281714 1.138 247 129 191 255
0.063944757 -0.15281714 1.138 247 129 191 255
0.065647617 -0.15174286 1.13 247 129 191 255
0.067379996 -0.15080285 1.123 247 129 191 255
0.069271438 -0.15026572 1.1190001 247 129 191 255
0.070700951 -0.14878859 1.108 247 129 191 255
0.072811432 -0.14878859 1.108 247 129 191 255
0.072825715 -0.14462572 1.077 247 129 191 255
0.074390478 -0.14368573 1.0700001 247 129 191 255
0.076214284 -0.14328286 1.067 247 129 191 255
0.078246668 -0.14328286 1.067 247 129 191 255
0.079978101 -0.14274572 1.0630001 247 129 191 255
0.082002863 -0.14274572 1.0630001 247 129 191 255
0.084027618 -0.14274572 1.0630001 247 129 191 255
-0.011136191 -0.14072096 1.0630001 247 129 191 255
-0.0091114286 -0.14072096 1.0630001 247 129 191 255
-0.0070866672 -0.14072096 1.0630001 247 129 191 255
-0.0050619054 -0.14072096 1.0630001 247 129 191 255
-0.003037143 -0.14072096 1.0630001 247 129 191 255
-0.001012381 -0.14072096 1.0630001 247 129 191 255
0.001012381 -0.14072096 1.0630001 247 129 191 255
0.003037143 -0.14072096 1.0630001 247 129 191 255
0.0054714289 -0.15210572 1.149 247 129 191 255
0.0076600001 -0.15210572 1.149 247 129 191 255
0.0098485723 -0.15210572 1.149 247 129 191 255
0.012037144 -0.15210572 1.149 247 129 191 255
0.014176192 -0.15157621 1.1450001 247 129 191 255
0.016357144 -0.15157621 1.1450001 247 129 191 255
0.018602857 -0.15210572 1.149 247 129 191 255
0.02079143 -0.15210572 1.149 247 129 191 255
0.022980001 -0.15210572 1.149 247 129 191 255
0.025168573 -0.15210572 1.149 247 129 191 255
0.027357142 -0.15210572 1.149 247 129 191 255
0.029545715 -0.15210572 1.149 247 129 191 255
0.031734288 -0.15210572 1.149 247 129 191 255
0.033922859 -0.15210572 1.149 247 129 191 255
0.036111429 -0.15210572 1.149 247 129 191 255
0.0383 -0.15210572 1.149 247 129 191 255
0.040347625 -0.15157621 1.1450001 247 129 191 255
0.042528573 -0.15157621 1.1450001 247 129 191 255
0.044865716 -0.15210572 1.149 247 129 191 255
0.047054287 -0.15210572 1.149 247 129 191 255
0.049242858 -0.15210572 1.149 247 129 191 255
0.051431429 -0.15210572 1.149 247 129 191 255
0.053433336 -0.15157621 1.1450001 247 129 191 255
0.055614289 -0.15157621 1.1450001 247 129 191 255
0.057795241 -0.15157621 1.1450001 247 129 191 255
0.059976194 -0.15157621 1.1450001 247 129 191 255
0.061940003 -0.15104666 1.141 247 129 191 255
0.063944757 -0.15064953 1.138 247 129 191 255
0.065880001 -0.15012001 1.1340001 247 129 191 255
0.067560002 -0.14906096 1.126 247 129 191 255
0.069271438 -0.14813431 1.1190001 247 129 191 255
0.071147621 -0.14760476 1.115 247 129 191 255
0.073271424 -0.14760476 1.115 247 129 191 255
0.075395241 -0.14760476 1.115 247 129 191 255
0.074390478 -0.14164762 1.0700001 247 129 191 255
0.076214284 -0.14125048 1.067 247 129 191 255
0.078246668 -0.14125048 1.067 247 129 191 255
0.080279045 -0.14125048 1.067 247 129 191 255
0.082002863 -0.14072096 1.0630001 247 129 191 255
0.084027618 -0.14072096 1.0630001 247 129 191 255
0.08637619 -0.14125048 1.067 247 129 191 255
-0.011136191 -0.13869619 1.0630001 247 129 191 255
-0.0091114286 -0.13869619 1.0630001 247 129 191 255
-0.0070866672 -0.13869619 1.0630001 247 129 191 255
-0.0050619054 -0.13869619 1.0630001 247 129 191 255
-0.003037143 -0.13869619 1.0630001 247 129 191 255
-0.001012381 -0.13869619 1.0630001 247 129 191 255
0.001012381 -0.13869619 1.0630001 247 129 191 255
0.0032828571 -0.14991716 1.149 247 129 191 255
0.0054714289 -0.14991716 1.149 247 129 191 255
0.0076600001 -0.14991716 1.149 247 129 191 255
0.0098485723 -0.14991716 1.149 247 129 191 255
0.011995239 -0.14939526 1.1450001 247 129 191 255
0.014176192 -0.14939526 1.1450001 247 129 191 255
0.016357144 -0.14939526 1.1450001 247 129 191 255
0.018538097 -0.14939526 1.1450001 247 129 191 255
0.020719048 -0.14939526 1.1450001 247 129 191 255
0.022900002 -0.14939526 1.1450001 247 129 191 255
0.025080955 -0.14939526 1.1450001 247 129 191 255
0.027261905 -0.14939526 1.1450001 247 129 191 255
0.02944286 -0.14939526 1.1450001 247 129 191 255
0.031623811 -0.14939526 1.1450001 247 129 191 255
0.033804763 -0.14939526 1.1450001 247 129 191 255
0.035985716 -0.14939526 1.1450001 247 129 191 255
0.038166672 -0.14939526 1.1450001 247 129 191 255
0.040347625 -0.14939526 1.1450001 247 129 191 255
0.042528573 -0.14939526 1.1450001 247 129 191 255
0.044709526 -0.14939526 1.1450001 247 129 191 255
0.046890479 -0.14939526 1.1450001 247 129 191 255
0.049071435 -0.14939526 1.1450001 247 129 191 255
0.051252387 -0.14939526 1.1450001 247 129 191 255
0.053433336 -0.14939526 1.1450001 247 129 191 255
0.055614289 -0.14939526 1.1450001 247 129 191 255
0.057795241 -0.14939526 1.1450001 247 129 191 255
0.059976194 -0.14939526 1.1450001 247 129 191 255
0.061940003 -0.14887333 1.141 247 129 191 255
0.063944757 -0.14848191 1.138 247 129 191 255
0.065880001 -0.14796001 1.1340001 247 129 191 255
0.0678 -0.14743809 1.13 247 129 191 255
0.06951905 -0.14652476 1.123 247 129 191 255
0.071147621 -0.14548096 1.115 247 129 191 255
0.073271424 -0.14548096 1.115 247 129 191 255
0.075395241 -0.14548096 1.115 247 129 191 255
0.074181899 -0.13921809 1.067 247 129 191 255
0.076214284 -0.13921809 1.067 247 129 191 255
0.078246668 -0.13921809 1.067 247 129 191 255
0.080279045 -0.13921809 1.067 247 129 191 255
0.082311429 -0.13921809 1.067 247 129 191 255
0.084343813 -0.13921809 1.067 247 129 191 255
0.08637619 -0.13921809 1.067 247 129 191 255
0.088905722 -0.14000095 1.0730001 247 129 191 255
0.091288574 -0.14052285 1.077 247 129 191 255
-0.011136191 -0.13667144 1.0630001 247 129 191 255
-0.0091114286 -0.13667144 1.0630001 247 129 191 255
-0.0070666671 -0.13628572 1.0600001 247 129 191 255
-0.0050476193 -0.13628572 1.0600001 247 129 191 255
-0.003037143 -0.13667144 1.0630001 247 129 191 255
-0.001012381 -0.13667144 1.0630001 247 129 191 255
0.0010904763 -0.14721429 1.1450001 247 129 191 255
0.0032714289 -0.14721429 1.1450001 247 129 191 255
0.0054523814 -0.14721429 1.1450001 247 129 191 255
0.0076333336 -0.14721429 1.1450001 247 129 191 255
0.0098142866 -0.14721429 1.1450001 247 129 191 255
0.011995239 -0.14721429 1.1450001 247 129 191 255
0.014176192 -0.14721429 1.1450001 247 129 191 255
0.016357144 -0.14721429 1.1450001 247 129 191 255
0.018538097 -0.14721429 1.1450001 247 129 191 255
0.020719048 -0.14721429 1.1450001 247 129 191 255
0.022900002 -0.14721429 1.1450001 247 129 191 255
0.025080955 -0.14721429 1.1450001 247 129 191 255
0.027261905 -0.14721429 1.1450001 247 129 191 255
0.02944286 -0.14721429 1.1450001 247 129 191 255
0.031623811 -0.14721429 1.1450001 247 129 191 255
0.033804763 -0.14721429 1.1450001 247 129 191 255
0.035985716 -0.14721429 1.1450001 247 129 191 255
0.038166672 -0.14721429 1.1450001 247 129 191 255
0.040347625 -0.14721429 1.1450001 247 129 191 255
0.042528573 -0.14721429 1.1450001 247 129 191 255
0.044709526 -0.14721429 1.1450001 247 129 191 255
0.046890479 -0.14721429 1.1450001 247 129 191 255
0.049071435 -0.14721429 1.1450001 247 129 191 255
0.051252387 -0.14721429 1.1450001 247 129 191 255
0.053433336 -0.14721429 1.1450001 247 129 191 255
0.055614289 -0.14721429 1.1450001 247 129 191 255
0.057795241 -0.14721429 1.1450001 247 129 191 255
0.059976194 -0.14721429 1.1450001 247 129 191 255
0.06215715 -0.14721429 1.1450001 247 129 191 255
0.064113334 -0.14669999 1.141 247 129 191 255
0.066112377 -0.14631429 1.138 247 129 191 255
0.068039998 -0.14580001 1.1340001 247 129 191 255
0.069704764 -0.14477144 1.126 247 129 191 255
0.071402863 -0.14387144 1.1190001 247 129 191 255
0.073534288 -0.14387144 1.1190001 247 129 191 255
0.07566572 -0.14387144 1.1190001 247 129 191 255
0.074181899 -0.13718571 1.067 247 129 191 255
0.076214284 -0.13718571 1.067 247 129 191 255
0.078246668 -0.13718571 1.067 247 129 191 255
0.080279045 -0.13718571 1.067 247 129 191 255
0.082311429 -0.13718571 1.067 247 129 191 255
0.084343813 -0.13718571 1.067 247 129 191 255
0.086619049 -0.13757144 1.0700001 247 129 191 255
0.088905722 -0.13795716 1.0730001 247 129 191 255
0.091288574 -0.13847142 1.077 247 129 191 255
0.093340002 -0.13847142 1.077 247 129 191 255
0.09539143 -0.13847142 1.077 247 129 191 255
0.097442858 -0.13847142 1.077 247 129 191 255
-0.0090857148 -0.13426667 1.0600001 247 129 191 255
-0.0070666671 -0.13426667 1.0600001 247 129 191 255
-0.0050476193 -0.13426667 1.0600001 247 129 191 255
-0.003037143 -0.13464668 1.0630001 247 129 191 255
-0.001012381 -0.13464668 1.0630001 247 129 191 255
0.0010904763 -0.14503334 1.1450001 247 129 191 255
0.0032714289 -0.14503334 1.1450001 247 129 191 255
0.0054523814 -0.14503334 1.1450001 247 129 191 255
0.0076333336 -0.14503334 1.1450001 247 129 191 255
0.0098142866 -0.14503334 1.1450001 247 129 191 255
0.011995239 -0.14503334 1.1450001 247 129 191 255
0.014176192 -0.14503334 1.1450001 247 129 191 255
0.016357144 -0.14503334 1.1450001 247 129 191 255
0.018538097 -0.14503334 1.1450001 247 129 191 255
0.020719048 -0.14503334 1.1450001 247 129 191 255
0.022900002 -0.14503334 1.1450001 247 129 191 255
0.025080955 -0.14503334 1.1450001 247 129 191 255
0.027261905 -0.14503334 1.1450001 247 129 191 255
0.02944286 -0.14503334 1.1450001 247 129 191 255
0.031623811 -0.14503334 1.1450001 247 129 191 255
0.033804763 -0.14503334 1.1450001 247 129 191 255
0.035985716 -0.14503334 1.1450001 247 129 191 255
0.038166672 -0.14503334 1.1450001 247 129 191 255
0.040206671 -0.14452668 1.141 247 129 191 255
0.042380001 -0.14452668 1.141 247 129 191 255
0.044709526 -0.14503334 1.1450001 247 129 191 255
0.046890479 -0.14503334 1.1450001 247 129 191 255
0.049071435 -0.14503334 1.1450001 247 129 191 255
0.051252387 -0.14503334 1.1450001 247 129 191 255
0.053433336 -0.14503334 1.1450001 247 129 191 255
0.055614289 -0.14503334 1.1450001 247 129 191 255
0.057795241 -0.14503334 1.1450001 247 129 191 255
0.059976194 -0.14503334 1.1450001 247 129 191 255
0.06215715 -0.14503334 1.1450001 247 129 191 255
0.064113334 -0.14452668 1.141 247 129 191 255
0.066112377 -0.14414667 1.138 247 129 191 255
0.068279997 -0.14414667 1.138 247 129 191 255
0.070200004 -0.14364001 1.1340001 247 129 191 255
0.07210476 -0.14313333 1.13 247 129 191 255
0.074257143 -0.14313333 1.13 247 129 191 255
0.076680005 -0.14364001 1.1340001 247 129 191 255
0.078840002 -0.14364001 1.1340001 247 129 191 255
0.076214284 -0.13515334 1.067 247 129 191 255
0.078246668 -0.13515334 1.067 247 129 191 255
0.080279045 -0.13515334 1.067 247 129 191 255
0.082311429 -0.13515334 1.067 247 129 191 255
0.084343813 -0.13515334 1.067 247 129 191 255
0.086619049 -0.13553335 1.0700001 247 129 191 255
0.088905722 -0.13591334 1.0730001 247 129 191 255
0.091288574 -0.13642 1.077 247 129 191 255
0.093340002 -0.13642 1.077 247 129 191 255
0.09539143 -0.13642 1.077 247 129 191 255
0.097442858 -0.13642 1.077 247 129 191 255
0.099494286 -0.13642 1.077 247 129 191 255
-0.0070866672 -0.13262191 1.0630001 247 129 191 255
-0.0050619054 -0.13262191 1.0630001 247 129 191 255
-0.003037143 -0.13262191 1.0630001 247 129 191 255
-0.0010904763 -0.1428524 1.1450001 247 129 191 255
0.0010904763 -0.1428524 1.1450001 247 129 191 255
0.0032714289 -0.1428524 1.1450001 247 129 191 255
0.0054523814 -0.1428524 1.1450001 247 129 191 255
0.0076333336 -0.1428524 1.1450001 247 129 191 255
0.00978 -0.14235334 1.141 247 129 191 255
0.011953333 -0.14235334 1.141 247 129 191 255
0.014126667 -0.14235334 1.141 247 129 191 255
0.0163 -0.14235334 1.141 247 129 191 255
0.018473335 -0.14235334 1.141 247 129 191 255
0.020646667 -0.14235334 1.141 247 129 191 255
0.02282 -0.14235334 1.141 247 129 191 255
0.025080955 -0.1428524 1.1450001 247 129 191 255
0.027261905 -0.1428524 1.1450001 247 129 191 255
0.02944286 -0.1428524 1.1450001 247 129 191 255
0.031623811 -0.1428524 1.1450001 247 129 191 255
0.033804763 -0.1428524 1.1450001 247 129 191 255
0.035985716 -0.1428524 1.1450001 247 129 191 255
0.038166672 -0.1428524 1.1450001 247 129 191 255
0.040206671 -0.14235334 1.141 247 129 191 255
0.042380001 -0.14235334 1.141 247 129 191 255
0.044553336 -0.14235334 1.141 247 129 191 255
0.046726666 -0.14235334 1.141 247 129 191 255
0.048900001 -0.14235334 1.141 247 129 191 255
0.051073335 -0.14235334 1.141 247 129 191 255
0.053246666 -0.14235334 1.141 247 129 191 255
0.05542 -0.14235334 1.141 247 129 191 255
0.057795241 -0.1428524 1.1450001 247 129 191 255
0.059976194 -0.1428524 1.1450001 247 129 191 255
0.06215715 -0.1428524 1.1450001 247 129 191 255
0.064338103 -0.1428524 1.1450001 247 129 191 255
0.066286668 -0.14235334 1.141 247 129 191 255
0.068279997 -0.14197905 1.138 247 129 191 255
0.070447616 -0.14197905 1.138 247 129 191 255
0.072360002 -0.14148 1.1340001 247 129 191 255
0.074519999 -0.14148 1.1340001 247 129 191 255
0.076680005 -0.14148 1.1340001 247 129 191 255
0.078840002 -0.14148 1.1340001 247 129 191 255
0.076214284 -0.13312095 1.067 247 129 191 255
0.078246668 -0.13312095 1.067 247 129 191 255
0.080279045 -0.13312095 1.067 247 129 191 255
0.082311429 -0.13312095 1.067 247 129 191 255
0.084343813 -0.13312095 1.067 247 129 191 255
0.086619049 -0.13349526 1.0700001 247 129 191 255
0.088905722 -0.13386953 1.0730001 247 129 191 255
0.090949535 -0.13386953 1.0730001 247 129 191 255
0.093340002 -0.13436857 1.077 247 129 191 255
0.09539143 -0.13436857 1.077 247 129 191 255
0.097442858 -0.13436857 1.077 247 129 191 255
0.099494286 -0.13436857 1.077 247 129 191 255
0.10154571 -0.13436857 1.077 247 129 191 255
-0.0075866668 -0.13981143 1.138 247 129 191 255
-0.0054190475 -0.13981143 1.138 247 129 191 255
-0.0032514285 -0.13981143 1.138 247 129 191 255
-0.0010866667 -0.14018001 1.141 247 129 191 255
0.0010866667 -0.14018001 1.141 247 129 191 255
0.0032600001 -0.14018001 1.141 247 129 191 255
0.0054333331 -0.14018001 1.141 247 129 191 255
0.007606667 -0.14018001 1.141 247 129 191 255
0.00978 -0.14018001 1.141 247 129 191 255
0.011953333 -0.14018001 1.141 247 129 191 255
0.014126667 -0.14018001 1.141 247 129 191 255
0.0163 -0.14018001 1.141 247 129 191 255
0.018473335 -0.14018001 1.141 247 129 191 255
0.020646667 -0.14018001 1.141 247 129 191 255
0.02282 -0.14018001 1.141 247 129 191 255
0.024993334 -0.14018001 1.141 247 129 191 255
0.027166668 -0.14018001 1.141 247 129 191 255
0.02944286 -0.14067145 1.1450001 247 129 191 255
0.031623811 -0.14067145 1.1450001 247 129 191 255
0.033804763 -0.14067145 1.1450001 247 129 191 255
0.035985716 -0.14067145 1.1450001 247 129 191 255
0.038166672 -0.14067145 1.1450001 247 129 191 255
0.040206671 -0.14018001 1.141 247 129 191 255
0.042380001 -0.14018001 1.141 247 129 191 255
0.044553336 -0.14018001 1.141 247 129 191 255
0.046726666 -0.14018001 1.141 247 129 191 255
0.048900001 -0.14018001 1.141 247 129 191 255
0.051073335 -0.14018001 1.141 247 129 191 255
0.053246666 -0.14018001 1.141 247 129 191 255
0.05542 -0.14018001 1.141 247 129 191 255
0.057593334 -0.14018001 1.141 247 129 191 255
0.059976194 -0.14067145 1.1450001 247 129 191 255
0.06215715 -0.14067145 1.1450001 247 129 191 255
0.064338103 -0.14067145 1.1450001 247 129 191 255
0.066519052 -0.14067145 1.1450001 247 129 191 255
0.068700008 -0.14067145 1.1450001 247 129 191 255
0.070447616 -0.13981143 1.138 247 129 191 255
0.072360002 -0.13932002 1.1340001 247 129 191 255
0.074519999 -0.13932002 1.1340001 247 129 191 255
0.076680005 -0.13932002 1.1340001 247 129 191 255
0.078840002 -0.13932002 1.1340001 247 129 191 255
0.07571429 -0.13022858 1.0600001 247 129 191 255
0.077733338 -0.13022858 1.0600001 247 129 191 255
0.079978101 -0.13059716 1.0630001 247 129 191 255
0.082311429 -0.13108857 1.067 247 129 191 255
0.084343813 -0.13108857 1.067 247 129 191 255
0.086619049 -0.13145715 1.0700001 247 129 191 255
0.088905722 -0.13182572 1.0730001 247 129 191 255
0.090949535 -0.13182572 1.0730001 247 129 191 255
0.092993334 -0.13182572 1.0730001 247 129 191 255
0.095037147 -0.13182572 1.0730001 247 129 191 255
0.097442858 -0.13231714 1.077 247 129 191 255
0.099494286 -0.13231714 1.077 247 129 191 255
0.10154571 -0.13231714 1.077 247 129 191 255
-0.0075866668 -0.13764381 1.138 247 129 191 255
-0.0054190475 -0.13764381 1.138 247 129 191 255
-0.0032514285 -0.13764381 1.138 247 129 191 255
-0.0010866667 -0.13800666 1.141 247 129 191 255
0.0010866667 -0.13800666 1.141 247 129 191 255
0.0032600001 -0.13800666 1.141 247 129 191 255
0.0054333331 -0.13800666 1.141 247 129 191 255
0.007606667 -0.13800666 1.141 247 129 191 255
0.00978 -0.13800666 1.141 247 129 191 255
0.011953333 -0.13800666 1.141 247 129 191 255
0.014126667 -0.13800666 1.141 247 129 191 255
0.0163 -0.13800666 1.141 247 129 191 255
0.018473335 -0.13800666 1.141 247 129 191 255
0.020646667 -0.13800666 1.141 247 129 191 255
0.02282 -0.13800666 1.141 247 129 191 255
0.024993334 -0.13800666 1.141 247 129 191 255
0.027166668 -0.13800666 1.141 247 129 191 255
0.02944286 -0.13849048 1.1450001 247 129 191 255
0.031623811 -0.13849048 1.1450001 247 129 191 255
0.033804763 -0.13849048 1.1450001 247 129 191 255
0.035985716 -0.13849048 1.1450001 247 129 191 255
0.038166672 -0.13849048 1.1450001 247 129 191 255
0.040206671 -0.13800666 1.141 247 129 191 255
0.042380001 -0.13800666 1.141 247 129 191 255
0.044553336 -0.13800666 1.141 247 129 191 255
0.046726666 -0.13800666 1.141 247 129 191 255
0.048900001 -0.13800666 1.141 247 129 191 255
0.051073335 -0.13800666 1.141 247 129 191 255
0.053246666 -0.13800666 1.141 247 129 191 255
0.05542 -0.13800666 1.141 247 129 191 255
0.057593334 -0.13800666 1.141 247 129 191 255
0.059766669 -0.13800666 1.141 247 129 191 255
0.06215715 -0.13849048 1.1450001 247 129 191 255
0.064338103 -0.13849048 1.1450001 247 129 191 255
0.066519052 -0.13849048 1.1450001 247 129 191 255
0.068700008 -0.13849048 1.1450001 247 129 191 255
0.070633337 -0.13800666 1.141 247 129 191 255
0.072615236 -0.13764381 1.138 247 129 191 255
0.074782856 -0.13764381 1.138 247 129 191 255
0.076680005 -0.13716 1.1340001 247 129 191 255
0.078840002 -0.13716 1.1340001 247 129 191 255
0.07571429 -0.12820953 1.0600001 247 129 191 255
0.077733338 -0.12820953 1.0600001 247 129 191 255
0.079978101 -0.12857239 1.0630001 247 129 191 255
0.082311429 -0.12905619 1.067 247 129 191 255
0.084343813 -0.12905619 1.067 247 129 191 255
0.086619049 -0.12941904 1.0700001 247 129 191 255
0.088905722 -0.12978192 1.0730001 247 129 191 255
0.090949535 -0.12978192 1.0730001 247 129 191 255
0.092993334 -0.12978192 1.0730001 247 129 191 255
0.095037147 -0.12978192 1.0730001 247 129 191 255
0.097442858 -0.13026571 1.077 247 129 191 255
0.099494286 -0.13026571 1.077 247 129 191 255
0.10154571 -0.13026571 1.077 247 129 191 255
0.10359714 -0.13026571 1.077 247 129 191 255
-0.0075866668 -0.13547619 1.138 247 129 191 255
-0.0054190475 -0.13547619 1.138 247 129 191 255
-0.0032514285 -0.13547619 1.138 247 129 191 255
-0.0010866667 -0.13583334 1.141 247 129 191 255
0.0010866667 -0.13583334 1.141 247 129 191 255
0.0032600001 -0.13583334 1.141 247 129 191 255
0.0054333331 -0.13583334 1.141 247 129 191 255
0.007606667 -0.13583334 1.141 247 129 191 255
0.00978 -0.13583334 1.141 247 129 191 255
0.011953333 -0.13583334 1.141 247 129 191 255
0.014126667 -0.13583334 1.141 247 129 191 255
0.0163 -0.13583334 1.141 247 129 191 255
0.018424762 -0.13547619 1.138 247 129 191 255
0.02059238 -0.13547619 1.138 247 129 191 255
0.02276 -0.13547619 1.138 247 129 191 255
0.024927618 -0.13547619 1.138 247 129 191 255
0.027166668 -0.13583334 1.141 247 129 191 255
0.029340001 -0.13583334 1.141 247 129 191 255
0.031513333 -0.13583334 1.141 247 129 191 255
0.033686668 -0.13583334 1.141 247 129 191 255
0.035859998 -0.13583334 1.141 247 129 191 255
0.038033333 -0.13583334 1.141 247 129 191 255
0.040206671 -0.13583334 1.141 247 129 191 255
0.042380001 -0.13583334 1.141 247 129 191 255
0.044553336 -0.13583334 1.141 247 129 191 255
0.04660381 -0.13547619 1.138 247 129 191 255
0.048771426 -0.13547619 1.138 247 129 191 255
0.050939046 -0.13547619 1.138 247 129 191 255
0.053106666 -0.13547619 1.138 247 129 191 255
0.055274285 -0.13547619 1.138 247 129 191 255
0.057593334 -0.13583334 1.141 247 129 191 255
0.059766669 -0.13583334 1.141 247 129 191 255
0.061940003 -0.13583334 1.141 247 129 191 255
0.064338103 -0.13630953 1.1450001 247 129 191 255
0.066519052 -0.13630953 1.1450001 247 129 191 255
0.068700008 -0.13630953 1.1450001 247 129 191 255
0.070880957 -0.13630953 1.1450001 247 129 191 255
0.072806664 -0.13583334 1.141 247 129 191 255
0.074980006 -0.13583334 1.141 247 129 191 255
0.076950483 -0.13547619 1.138 247 129 191 255
0.079118095 -0.13547619 1.138 247 129 191 255
0.07571429 -0.12619048 1.0600001 247 129 191 255
0.077733338 -0.12619048 1.0600001 247 129 191 255
0.079978101 -0.12654763 1.0630001 247 129 191 255
0.082311429 -0.1270238 1.067 247 129 191 255
0.084343813 -0.1270238 1.067 247 129 191 255
0.086619049 -0.12738095 1.0700001 247 129 191 255
0.088657148 -0.12738095 1.0700001 247 129 191 255
0.090949535 -0.1277381 1.0730001 247 129 191 255
0.092993334 -0.1277381 1.0730001 247 129 191 255
0.09539143 -0.12821428 1.077 247 129 191 255
0.097442858 -0.12821428 1.077 247 129 191 255
0.099494286 -0.12821428 1.077 247 129 191 255
0.10154571 -0.12821428 1.077 247 129 191 255
0.10388572 -0.12857142 1.08 247 129 191 255
-0.007606667 -0.13366 1.141 247 129 191 255
-0.0054333331 -0.13366 1.141 247 129 191 255
-0.0032600001 -0.13366 1.141 247 129 191 255
-0.0010866667 -0.13366 1.141 247 129 191 255
0.0010866667 -0.13366 1.141 247 129 191 255
0.0032600001 -0.13366 1.141 247 129 191 255
0.0054333331 -0.13366 1.141 247 129 191 255
0.007606667 -0.13366 1.141 247 129 191 255
0.00978 -0.13366 1.141 247 129 191 255
0.011953333 -0.13366 1.141 247 129 191 255
0.014126667 -0.13366 1.141 247 129 191 255
0.0163 -0.13366 1.141 247 129 191 255
0.018424762 -0.13330857 1.138 247 129 191 255
0.02059238 -0.13330857 1.138 247 129 191 255
0.02276 -0.13330857 1.138 247 129 191 255
0.024927618 -0.13330857 1.138 247 129 191 255
0.027166668 -0.13366 1.141 247 129 191 255
0.029340001 -0.13366 1.141 247 129 191 255
0.031430475 -0.13330857 1.138 247 129 191 255
0.033598095 -0.13330857 1.138 247 129 191 255
0.035765715 -0.13330857 1.138 247 129 191 255
0.037933335 -0.13330857 1.138 247 129 191 255
0.040100951 -0.13330857 1.138 247 129 191 255
