ply
format ascii 1.0
comment PCL generated
element vertex 980
property float x
property float y
property float z
property uchar red
property uchar green
property uchar blue
property uchar alpha
element camera 0
property float view_px
property float view_py
property float view_pz
property float x_axisx
property float x_axisy
property float x_axisz
property float y_axisx
property float y_axisy
property float y_axisz
property float z_axisx
property float z_axisy
property float z_axisz
property float focal
property float scalex
property float scaley
property float centerx
property float centery
property int viewportx
property int viewporty
property float k1
property float k2
end_header
-0.19804381 -0.36288953 1.202 247 129 191 255
-0.19575429 -0.36288953 1.202 247 129 191 255
-0.19475238 -0.36530477 1.21 247 129 191 255
-0.19308382 -0.36651242 1.2140001 247 129 191 255
-0.19218573 -0.36922953 1.223 247 129 191 255
-0.19047716 -0.37043718 1.2270001 247 129 191 255
-0.18890668 -0.37194669 1.2320001 247 129 191 255
-0.18656002 -0.37194669 1.2320001 247 129 191 255
-0.18481143 -0.37315428 1.2360001 247 129 191 255
-0.18245716 -0.37315428 1.2360001 247 129 191 255
-0.18083143 -0.3746638 1.2410001 247 129 191 255
-0.17904285 -0.37587142 1.245 247 129 191 255
-0.17738095 -0.37738094 1.25 247 129 191 255
-0.175 -0.37738094 1.25 247 129 191 255
-0.17330955 -0.37889048 1.2550001 247 129 191 255
-0.17091906 -0.37889048 1.2550001 247 129 191 255
-0.16852859 -0.37889048 1.2550001 247 129 191 255
-0.16666763 -0.3800981 1.2590001 247 129 191 255
-0.16426952 -0.3800981 1.2590001 247 129 191 255
-0.16187143 -0.3800981 1.2590001 247 129 191 255
-0.15947334 -0.3800981 1.2590001 247 129 191 255
-0.15707524 -0.3800981 1.2590001 247 129 191 255
-0.15467715 -0.3800981 1.2590001 247 129 191 255
-0.15227905 -0.3800981 1.2590001 247 129 191 255
-0.15047619 -0.38160762 1.2640001 247 129 191 255
-0.14806858 -0.38160762 1.2640001 247 129 191 255
-0.14566095 -0.38160762 1.2640001 247 129 191 255
-0.14325333 -0.38160762 1.2640001 247 129 191 255
-0.14084572 -0.38160762 1.2640001 247 129 191 255
-0.13843809 -0.38160762 1.2640001 247 129 191 255
-0.13603048 -0.38160762 1.2640001 247 129 191 255
-0.13362285 -0.38160762 1.2640001 247 129 191 255
-0.13121524 -0.38160762 1.2640001 247 129 191 255
-0.12880762 -0.38160762 1.2640001 247 129 191 255
-0.12639999 -0.38160762 1.2640001 247 129 191 255
-0.12399238 -0.38160762 1.2640001 247 129 191 255
-0.12196951 -0.38281524 1.268 247 129 191 255
-0.11955428 -0.38281524 1.268 247 129 191 255
-0.11713905 -0.38281524 1.268 247 129 191 255
-0.11472381 -0.38281524 1.268 247 129 191 255
-0.11230858 -0.38281524 1.268 247 129 191 255
-0.10989333 -0.38281524 1.268 247 129 191 255
-0.10747809 -0.38281524 1.268 247 129 191 255
-0.10506286 -0.38281524 1.268 247 129 191 255
-0.10264762 -0.38281524 1.268 247 129 191 255
-0.10023239 -0.38281524 1.268 247 129 191 255
-0.097817145 -0.38281524 1.268 247 129 191 255
-0.095401898 -0.38281524 1.268 247 129 191 255
-0.092986666 -0.38281524 1.268 247 129 191 255
-0.090285718 -0.38160762 1.2640001 247 129 191 255
-0.087878101 -0.38160762 1.2640001 247 129 191 255
-0.085470475 -0.38160762 1.2640001 247 129 191 255
-0.083062857 -0.38160762 1.2640001 247 129 191 255
-0.08065524 -0.38160762 1.2640001 247 129 191 255
-0.077938102 -0.3800981 1.2590001 247 129 191 255
-0.075539999 -0.3800981 1.2590001 247 129 191 255
-0.072909534 -0.37889048 1.2550001 247 129 191 255
-0.070519052 -0.37889048 1.2550001 247 129 191 255
-0.067857139 -0.37738094 1.25 247 129 191 255
-0.065214284 -0.37587142 1.245 247 129 191 255
-0.061732382 -0.36922953 1.223 247 129 191 255
-0.059208576 -0.36802194 1.2190001 247 129 191 255
-0.056886673 -0.36802194 1.2190001 247 129 191 255
-0.054340959 -0.36651242 1.2140001 247 129 191 255
-0.052028574 -0.36651242 1.2140001 247 129 191 255
-0.049716193 -0.36651242 1.2140001 247 129 191 255
-0.20565049 -0.35790002 1.1930001 247 129 191 255
-0.20337811 -0.35790002 1.1930001 247 129 191 255
-0.20110573 -0.35790002 1.1930001 247 129 191 255
-0.19950001 -0.35910001 1.197 247 129 191 255
-0.19804381 -0.36059999 1.202 247 129 191 255
-0.19575429 -0.36059999 1.202 247 129 191 255
-0.19475238 -0.36300001 1.21 247 129 191 255
-0.19308382 -0.36420003 1.2140001 247 129 191 255
-0.19218573 -0.36690003 1.223 247 129 191 255
-0.19047716 -0.36810002 1.2270001 247 129 191 255
-0.18890668 -0.36960003 1.2320001 247 129 191 255
-0.18656002 -0.36960003 1.2320001 247 129 191 255
-0.18481143 -0.37080002 1.2360001 247 129 191 255
-0.18319525 -0.3723 1.2410001 247 129 191 255
-0.18083143 -0.3723 1.2410001 247 129 191 255
-0.17904285 -0.37349999 1.245 247 129 191 255
-0.17738095 -0.375 1.25 247 129 191 255
-0.17570001 -0.37650004 1.2550001 247 129 191 255
-0.17330955 -0.37650004 1.2550001 247 129 191 255
-0.17091906 -0.37650004 1.2550001 247 129 191 255
-0.16906573 -0.37770003 1.2590001 247 129 191 255
-0.16666763 -0.37770003 1.2590001 247 129 191 255
-0.16426952 -0.37770003 1.2590001 247 129 191 255
-0.16187143 -0.37770003 1.2590001 247 129 191 255
-0.16010667 -0.37920001 1.2640001 247 129 191 255
-0.15769906 -0.37920001 1.2640001 247 129 191 255
-0.15529144 -0.37920001 1.2640001 247 129 191 255
-0.15288381 -0.37920001 1.2640001 247 129 191 255
-0.15095238 -0.3804 1.268 247 129 191 255
-0.14853714 -0.3804 1.268 247 129 191 255
-0.1461219 -0.3804 1.268 247 129 191 255
-0.14370666 -0.3804 1.268 247 129 191 255
-0.14129142 -0.3804 1.268 247 129 191 255
-0.1388762 -0.3804 1.268 247 129 191 255
-0.13646095 -0.3804 1.268 247 129 191 255
-0.13404572 -0.3804 1.268 247 129 191 255
-0.13163048 -0.3804 1.268 247 129 191 255
-0.12921523 -0.3804 1.268 247 129 191 255
-0.1268 -0.3804 1.268 247 129 191 255
-0.12438476 -0.3804 1.268 247 129 191 255
-0.12196951 -0.3804 1.268 247 129 191 255
-0.11955428 -0.3804 1.268 247 129 191 255
-0.11713905 -0.3804 1.268 247 129 191 255
-0.11472381 -0.3804 1.268 247 129 191 255
-0.11230858 -0.3804 1.268 247 129 191 255
-0.10989333 -0.3804 1.268 247 129 191 255
-0.10747809 -0.3804 1.268 247 129 191 255
-0.10506286 -0.3804 1.268 247 129 191 255
-0.10264762 -0.3804 1.268 247 129 191 255
-0.10023239 -0.3804 1.268 247 129 191 255
-0.097817145 -0.3804 1.268 247 129 191 255
-0.095401898 -0.3804 1.268 247 129 191 255
-0.092986666 -0.3804 1.268 247 129 191 255
-0.090571426 -0.3804 1.268 247 129 191 255
-0.088156193 -0.3804 1.268 247 129 191 255
-0.085740954 -0.3804 1.268 247 129 191 255
-0.083325714 -0.3804 1.268 247 129 191 255
-0.08065524 -0.37920001 1.2640001 247 129 191 255
-0.077938102 -0.37770003 1.2590001 247 129 191 255
-0.075539999 -0.37770003 1.2590001 247 129 191 255
-0.07314191 -0.37770003 1.2590001 247 129 191 255
-0.070519052 -0.37650004 1.2550001 247 129 191 255
-0.067857139 -0.375 1.25 247 129 191 255
-0.065476187 -0.375 1.25 247 129 191 255
-0.062388573 -0.37080002 1.2360001 247 129 191 255
-0.059597149 -0.36810002 1.2270001 247 129 191 255
-0.057260003 -0.36810002 1.2270001 247 129 191 255
-0.054922864 -0.36810002 1.2270001 247 129 191 255
-0.052585717 -0.36810002 1.2270001 247 129 191 255
-0.20565049 -0.35562763 1.1930001 247 129 191 255
-0.2026962 -0.35443524 1.189 247 129 191 255
-0.20043144 -0.35443524 1.189 247 129 191 255
-0.19950001 -0.35682002 1.197 247 129 191 255
-0.19804381 -0.35831049 1.202 247 129 191 255
-0.19575429 -0.35831049 1.202 247 129 191 255
-0.19410858 -0.35950288 1.2060001 247 129 191 255
-0.19387905 -0.36337811 1.2190001 247 129 191 255
-0.19281431 -0.36576289 1.2270001 247 129 191 255
-0.19047716 -0.36576289 1.2270001 247 129 191 255
-0.18890668 -0.36725336 1.2320001 247 129 191 255
-0.18716572 -0.36844572 1.2360001 247 129 191 255
-0.18481143 -0.36844572 1.2360001 247 129 191 255
-0.18319525 -0.3699362 1.2410001 247 129 191 255
-0.18141429 -0.37112856 1.245 247 129 191 255
-0.1797619 -0.37261903 1.25 247 129 191 255
-0.17809048 -0.37410954 1.2550001 247 129 191 255
-0.17570001 -0.37410954 1.2550001 247 129 191 255
-0.17330955 -0.37410954 1.2550001 247 129 191 255
-0.17146382 -0.37530193 1.2590001 247 129 191 255
-0.16906573 -0.37530193 1.2590001 247 129 191 255
-0.16732953 -0.3767924 1.2640001 247 129 191 255
-0.16492191 -0.3767924 1.2640001 247 129 191 255
-0.1625143 -0.3767924 1.2640001 247 129 191 255
-0.16010667 -0.3767924 1.2640001 247 129 191 255
-0.15819809 -0.37798476 1.268 247 129 191 255
-0.15578286 -0.37798476 1.268 247 129 191 255
-0.15336761 -0.37798476 1.268 247 129 191 255
-0.15095238 -0.37798476 1.268 247 129 191 255
-0.14853714 -0.37798476 1.268 247 129 191 255
-0.1461219 -0.37798476 1.268 247 129 191 255
-0.14370666 -0.37798476 1.268 247 129 191 255
-0.14129142 -0.37798476 1.268 247 129 191 255
-0.1388762 -0.37798476 1.268 247 129 191 255
-0.13646095 -0.37798476 1.268 247 129 191 255
-0.13404572 -0.37798476 1.268 247 129 191 255
-0.13163048 -0.37798476 1.268 247 129 191 255
-0.12921523 -0.37798476 1.268 247 129 191 255
-0.1268 -0.37798476 1.268 247 129 191 255
-0.12438476 -0.37798476 1.268 247 129 191 255
-0.12196951 -0.37798476 1.268 247 129 191 255
-0.11955428 -0.37798476 1.268 247 129 191 255
-0.11713905 -0.37798476 1.268 247 129 191 255
-0.11472381 -0.37798476 1.268 247 129 191 255
-0.11230858 -0.37798476 1.268 247 129 191 255
-0.10989333 -0.37798476 1.268 247 129 191 255
-0.10747809 -0.37798476 1.268 247 129 191 255
-0.10506286 -0.37798476 1.268 247 129 191 255
-0.097817145 -0.37798476 1.268 247 129 191 255
-0.095401898 -0.37798476 1.268 247 129 191 255
-0.092986666 -0.37798476 1.268 247 129 191 255
-0.090571426 -0.37798476 1.268 247 129 191 255
-0.088156193 -0.37798476 1.268 247 129 191 255
-0.085740954 -0.37798476 1.268 247 129 191 255
-0.083325714 -0.37798476 1.268 247 129 191 255
-0.08065524 -0.3767924 1.2640001 247 129 191 255
-0.077938102 -0.37530193 1.2590001 247 129 191 255
-0.075539999 -0.37530193 1.2590001 247 129 191 255
-0.07314191 -0.37530193 1.2590001 247 129 191 255
-0.070519052 -0.37410954 1.2550001 247 129 191 255
-0.067857139 -0.37261903 1.25 247 129 191 255
-0.065476187 -0.37261903 1.25 247 129 191 255
-0.062640958 -0.3699362 1.2410001 247 129 191 255
-0.060034286 -0.36844572 1.2360001 247 129 191 255
-0.057680003 -0.36844572 1.2360001 247 129 191 255
-0.055325717 -0.36844572 1.2360001 247 129 191 255
-0.05297143 -0.36844572 1.2360001 247 129 191 255
-0.2026962 -0.35217047 1.189 247 129 191 255
-0.20043144 -0.35217047 1.189 247 129 191 255
-0.19950001 -0.35453999 1.197 247 129 191 255
-0.19804381 -0.35602096 1.202 247 129 191 255
-0.19575429 -0.35602096 1.202 247 129 191 255
-0.19410858 -0.35720575 1.2060001 247 129 191 255
-0.19387905 -0.36105624 1.2190001 247 129 191 255
-0.19218573 -0.36224097 1.223 247 129 191 255
-0.19047716 -0.36342576 1.2270001 247 129 191 255
-0.18890668 -0.3649067 1.2320001 247 129 191 255
-0.18716572 -0.36609146 1.2360001 247 129 191 255
-0.18555905 -0.3675724 1.2410001 247 129 191 255
-0.18319525 -0.3675724 1.2410001 247 129 191 255
-0.18214285 -0.3702381 1.25 247 129 191 255
-0.1797619 -0.3702381 1.25 247 129 191 255
-0.17809048 -0.37171906 1.2550001 247 129 191 255
-0.17570001 -0.37171906 1.2550001 247 129 191 255
-0.17386191 -0.37290382 1.2590001 247 129 191 255
-0.17214477 -0.37438476 1.2640001 247 129 191 255
-0.16973716 -0.37438476 1.2640001 247 129 191 255
-0.16732953 -0.37438476 1.2640001 247 129 191 255
-0.15578286 -0.37556952 1.268 247 129 191 255
-0.15336761 -0.37556952 1.268 247 129 191 255
-0.15095238 -0.37556952 1.268 247 129 191 255
-0.14853714 -0.37556952 1.268 247 129 191 255
-0.1461219 -0.37556952 1.268 247 129 191 255
-0.14370666 -0.37556952 1.268 247 129 191 255
-0.14129142 -0.37556952 1.268 247 129 191 255
-0.1388762 -0.37556952 1.268 247 129 191 255
-0.13646095 -0.37556952 1.268 247 129 191 255
-0.13404572 -0.37556952 1.268 247 129 191 255
-0.13163048 -0.37556952 1.268 247 129 191 255
-0.12921523 -0.37556952 1.268 247 129 191 255
-0.088156193 -0.37556952 1.268 247 129 191 255
-0.085740954 -0.37556952 1.268 247 129 191 255
-0.083325714 -0.37556952 1.268 247 129 191 255
-0.080910474 -0.37556952 1.268 247 129 191 255
-0.078247622 -0.37438476 1.2640001 247 129 191 255
-0.075539999 -0.37290382 1.2590001 247 129 191 255
-0.07314191 -0.37290382 1.2590001 247 129 191 255
-0.070519052 -0.37171906 1.2550001 247 129 191 255
-0.067857139 -0.3702381 1.25 247 129 191 255
-0.065476187 -0.3702381 1.25 247 129 191 255
-0.062640958 -0.3675724 1.2410001 247 129 191 255
-0.060277145 -0.3675724 1.2410001 247 129 191 255
-0.0581 -0.36875716 1.245 247 129 191 255
-0.05572857 -0.36875716 1.245 247 129 191 255
-0.053357143 -0.36875716 1.245 247 129 191 255
-0.20178001 -0.35226002 1.197 247 129 191 255
-0.19950001 -0.35226002 1.197 247 129 191 255
-0.19804381 -0.35373142 1.202 247 129 191 255
-0.19640572 -0.35490859 1.2060001 247 129 191 255
-0.19475238 -0.35608572 1.21 247 129 191 255
-0.19387905 -0.35873431 1.2190001 247 129 191 255
-0.19218573 -0.35991144 1.223 247 129 191 255
-0.19047716 -0.3610886 1.2270001 247 129 191 255
-0.18890668 -0.36256003 1.2320001 247 129 191 255
-0.18716572 -0.36373714 1.2360001 247 129 191 255
-0.18555905 -0.3652086 1.2410001 247 129 191 255
-0.18378572 -0.3663857 1.245 247 129 191 255
-0.18287145 -0.36932862 1.2550001 247 129 191 255
-0.18048097 -0.36932862 1.2550001 247 129 191 255
-0.1786581 -0.37050572 1.2590001 247 129 191 255
-0.17626001 -0.37050572 1.2590001 247 129 191 255
-0.1745524 -0.37197715 1.2640001 247 129 191 255
-0.14853714 -0.37315428 1.268 247 129 191 255
-0.1461219 -0.37315428 1.268 247 129 191 255
-0.14370666 -0.37315428 1.268 247 129 191 255
-0.14129142 -0.37315428 1.268 247 129 191 255
-0.083325714 -0.37315428 1.268 247 129 191 255
-0.080910474 -0.37315428 1.268 247 129 191 255
-0.078247622 -0.37197715 1.2640001 247 129 191 255
-0.075840004 -0.37197715 1.2640001 247 129 191 255
-0.07314191 -0.37050572 1.2590001 247 129 191 255
-0.070519052 -0.36932862 1.2550001 247 129 191 255
-0.067857139 -0.36785713 1.25 247 129 191 255
-0.065476187 -0.36785713 1.25 247 129 191 255
-0.063095234 -0.36785713 1.25 247 129 191 255
-0.060471427 -0.3663857 1.245 247 129 191 255
-0.0581 -0.3663857 1.245 247 129 191 255
-0.05572857 -0.3663857 1.245 247 129 191 255
-0.20262285 -0.35144192 1.202 247 129 191 255
-0.20033334 -0.35144192 1.202 247 129 191 255
-0.19870287 -0.35261145 1.2060001 247 129 191 255
-0.19640572 -0.35261145 1.2060001 247 129 191 255
-0.1953962 -0.35495049 1.2140001 247 129 191 255
-0.19387905 -0.35641241 1.2190001 247 129 191 255
-0.19218573 -0.35758194 1.223 247 129 191 255
-0.19047716 -0.35875145 1.2270001 247 129 191 255
-0.18890668 -0.36021337 1.2320001 247 129 191 255
-0.18716572 -0.36138287 1.2360001 247 129 191 255
-0.18555905 -0.36284479 1.2410001 247 129 191 255
-0.18378572 -0.36401427 1.245 247 129 191 255
-0.18287145 -0.36693811 1.2550001 247 129 191 255
-0.18048097 -0.36693811 1.2550001 247 129 191 255
-0.1786581 -0.36810765 1.2590001 247 129 191 255
-0.17626001 -0.36810765 1.2590001 247 129 191 255
-0.1745524 -0.36956951 1.2640001 247 129 191 255
-0.080910474 -0.37073904 1.268 247 129 191 255
-0.078495234 -0.37073904 1.268 247 129 191 255
-0.075840004 -0.36956951 1.2640001 247 129 191 255
-0.07314191 -0.36810765 1.2590001 247 129 191 255
-0.070519052 -0.36693811 1.2550001 247 129 191 255
-0.068128571 -0.36693811 1.2550001 247 129 191 255
-0.065476187 -0.36547619 1.25 247 129 191 255
-0.063095234 -0.36547619 1.25 247 129 191 255
-0.060471427 -0.36401427 1.245 247 129 191 255
-0.0581 -0.36401427 1.245 247 129 191 255
-0.05572857 -0.36401427 1.245 247 129 191 255
-0.20166667 -0.35147619 1.21 247 129 191 255
-0.19936191 -0.35147619 1.21 247 129 191 255
-0.19705714 -0.35147619 1.21 247 129 191 255
-0.1953962 -0.3526381 1.2140001 247 129 191 255
-0.19387905 -0.35409051 1.2190001 247 129 191 255
-0.19218573 -0.35525239 1.223 247 129 191 255
-0.19047716 -0.35641432 1.2270001 247 129 191 255
-0.18890668 -0.3578667 1.2320001 247 129 191 255
-0.18716572 -0.35902858 1.2360001 247 129 191 255
-0.18555905 -0.36048096 1.2410001 247 129 191 255
-0.18452381 -0.36309522 1.25 247 129 191 255
-0.18287145 -0.36454764 1.2550001 247 129 191 255
-0.1810562 -0.36570954 1.2590001 247 129 191 255
-0.1786581 -0.36570954 1.2590001 247 129 191 255
-0.17696001 -0.36716193 1.2640001 247 129 191 255
-0.080910474 -0.3683238 1.268 247 129 191 255
-0.078495234 -0.3683238 1.268 247 129 191 255
-0.075840004 -0.36716193 1.2640001 247 129 191 255
-0.073432386 -0.36716193 1.2640001 247 129 191 255
-0.070519052 -0.36454764 1.2550001 247 129 191 255
-0.068128571 -0.36454764 1.2550001 247 129 191 255
-0.065476187 -0.36309522 1.25 247 129 191 255
-0.062388573 -0.35902858 1.2360001 247 129 191 255
-0.060034286 -0.35902858 1.2360001 247 129 191 255
-0.057680003 -0.35902858 1.2360001 247 129 191 255
-0.055325717 -0.35902858 1.2360001 247 129 191 255
-0.20233335 -0.35032576 1.2140001 247 129 191 255
-0.20002097 -0.35032576 1.2140001 247 129 191 255
-0.19770859 -0.35032576 1.2140001 247 129 191 255
-0.19620097 -0.35176858 1.2190001 247 129 191 255
-0.19387905 -0.35176858 1.2190001 247 129 191 255
-0.19218573 -0.35292286 1.223 247 129 191 255
-0.19047716 -0.35407716 1.2270001 247 129 191 255
-0.18890668 -0.35552001 1.2320001 247 129 191 255
-0.18716572 -0.35667431 1.2360001 247 129 191 255
-0.18555905 -0.35811716 1.2410001 247 129 191 255
-0.18452381 -0.36071429 1.25 247 129 191 255
-0.18287145 -0.3621572 1.2550001 247 129 191 255
-0.1810562 -0.36331144 1.2590001 247 129 191 255
-0.1786581 -0.36331144 1.2590001 247 129 191 255
-0.17696001 -0.36475429 1.2640001 247 129 191 255
-0.078495234 -0.36590856 1.268 247 129 191 255
-0.076080002 -0.36590856 1.268 247 129 191 255
-0.073432386 -0.36475429 1.2640001 247 129 191 255
-0.070519052 -0.3621572 1.2550001 247 129 191 255
-0.068128571 -0.3621572 1.2550001 247 129 191 255
-0.065476187 -0.36071429 1.25 247 129 191 255
-0.062388573 -0.35667431 1.2360001 247 129 191 255
-0.060034286 -0.35667431 1.2360001 247 129 191 255
-0.057680003 -0.35667431 1.2360001 247 129 191 255
-0.055325717 -0.35667431 1.2360001 247 129 191 255
-0.20166667 -0.3468667 1.21 247 129 191 255
-0.19936191 -0.3468667 1.21 247 129 191 255
-0.19705714 -0.3468667 1.21 247 129 191 255
-0.1953962 -0.34801337 1.2140001 247 129 191 255
-0.19387905 -0.34944668 1.2190001 247 129 191 255
-0.19218573 -0.35059336 1.223 247 129 191 255
-0.19047716 -0.35174003 1.2270001 247 129 191 255
-0.18890668 -0.35317335 1.2320001 247 129 191 255
-0.18716572 -0.35432002 1.2360001 247 129 191 255
-0.18555905 -0.35575333 1.2410001 247 129 191 255
-0.18452381 -0.35833332 1.25 247 129 191 255
-0.18287145 -0.35976669 1.2550001 247 129 191 255
-0.1810562 -0.36091334 1.2590001 247 129 191 255
-0.17936763 -0.36234668 1.2640001 247 129 191 255
-0.17696001 -0.36234668 1.2640001 247 129 191 255
-0.078495234 -0.36349332 1.268 247 129 191 255
-0.076080002 -0.36349332 1.268 247 129 191 255
-0.073432386 -0.36234668 1.2640001 247 129 191 255
-0.070519052 -0.35976669 1.2550001 247 129 191 255
-0.068128571 -0.35976669 1.2550001 247 129 191 255
-0.065476187 -0.35833332 1.25 247 129 191 255
-0.062388573 -0.35432002 1.2360001 247 129 191 255
-0.060034286 -0.35432002 1.2360001 247 129 191 255
-0.057680003 -0.35432002 1.2360001 247 129 191 255
-0.055325717 -0.35432002 1.2360001 247 129 191 255
-0.20166667 -0.3445619 1.21 247 129 191 255
-0.19936191 -0.3445619 1.21 247 129 191 255
-0.19705714 -0.3445619 1.21 247 129 191 255
-0.1953962 -0.34570098 1.2140001 247 129 191 255
-0.19387905 -0.34712479 1.2190001 247 129 191 255
-0.19218573 -0.3482638 1.223 247 129 191 255
-0.19047716 -0.3494029 1.2270001 247 129 191 255
-0.18952 -0.35196573 1.2360001 247 129 191 255
-0.18716572 -0.35196573 1.2360001 247 129 191 255
-0.18555905 -0.35338953 1.2410001 247 129 191 255
-0.18452381 -0.35595238 1.25 247 129 191 255
-0.18287145 -0.35737622 1.2550001 247 129 191 255
-0.1810562 -0.35851523 1.2590001 247 129 191 255
-0.078495234 -0.36107808 1.268 247 129 191 255
-0.076080002 -0.36107808 1.268 247 129 191 255
-0.073432386 -0.35993904 1.2640001 247 129 191 255
-0.070743814 -0.35851523 1.2590001 247 129 191 255
-0.068128571 -0.35737622 1.2550001 247 129 191 255
-0.065004766 -0.35338953 1.2410001 247 129 191 255
-0.062640958 -0.35338953 1.2410001 247 129 191 255
-0.060277145 -0.35338953 1.2410001 247 129 191 255
-0.057680003 -0.35196573 1.2360001 247 129 191 255
-0.20166667 -0.34225717 1.21 247 129 191 255
-0.19936191 -0.34225717 1.21 247 129 191 255
-0.19705714 -0.34225717 1.21 247 129 191 255
-0.1953962 -0.34338862 1.2140001 247 129 191 255
-0.19387905 -0.34480289 1.2190001 247 129 191 255
-0.19281431 -0.34706575 1.2270001 247 129 191 255
-0.19125335 -0.34848002 1.2320001 247 129 191 255
-0.18952 -0.34961143 1.2360001 247 129 191 255
-0.18716572 -0.34961143 1.2360001 247 129 191 255
-0.18555905 -0.35102573 1.2410001 247 129 191 255
-0.18452381 -0.35357141 1.25 247 129 191 255
-0.18287145 -0.35498574 1.2550001 247 129 191 255
-0.1810562 -0.35611713 1.2590001 247 129 191 255
-0.078495234 -0.35866287 1.268 247 129 191 255
-0.075840004 -0.35753146 1.2640001 247 129 191 255
-0.07314191 -0.35611713 1.2590001 247 129 191 255
-0.070519052 -0.35498574 1.2550001 247 129 191 255
-0.068128571 -0.35498574 1.2550001 247 129 191 255
-0.065004766 -0.35102573 1.2410001 247 129 191 255
-0.062388573 -0.34961143 1.2360001 247 129 191 255
-0.060034286 -0.34961143 1.2360001 247 129 191 255
-0.057680003 -0.34961143 1.2360001 247 129 191 255
-0.053982858 -0.34112576 1.2060001 247 129 191 255
-0.051685717 -0.34112576 1.2060001 247 129 191 255
-0.04922476 -0.33999431 1.202 247 129 191 255
-0.20262285 -0.33770475 1.202 247 129 191 255
-0.20033334 -0.33770475 1.202 247 129 191 255
-0.19870287 -0.33882859 1.2060001 247 129 191 255
-0.19705714 -0.33995238 1.21 247 129 191 255
-0.1953962 -0.34107623 1.2140001 247 129 191 255
-0.19387905 -0.34248099 1.2190001 247 129 191 255
-0.19281431 -0.34472859 1.2270001 247 129 191 255
-0.19125335 -0.34613335 1.2320001 247 129 191 255
-0.18952 -0.34725717 1.2360001 247 129 191 255
-0.18716572 -0.34725717 1.2360001 247 129 191 255
-0.18555905 -0.34866193 1.2410001 247 129 191 255
-0.18452381 -0.35119048 1.25 247 129 191 255
-0.18287145 -0.35259527 1.2550001 247 129 191 255
-0.1810562 -0.35371909 1.2590001 247 129 191 255
-0.080910474 -0.3562476 1.268 247 129 191 255
-0.078495234 -0.3562476 1.268 247 129 191 255
-0.075840004 -0.35512382 1.2640001 247 129 191 255
-0.07314191 -0.35371909 1.2590001 247 129 191 255
-0.070519052 -0.35259527 1.2550001 247 129 191 255
-0.067857139 -0.35119048 1.25 247 129 191 255
-0.065004766 -0.34866193 1.2410001 247 129 191 255
-0.062388573 -0.34725717 1.2360001 247 129 191 255
-0.059597149 -0.34472859 1.2270001 247 129 191 255
-0.057260003 -0.34472859 1.2270001 247 129 191 255
-0.053982858 -0.33882859 1.2060001 247 129 191 255
-0.051685717 -0.33882859 1.2060001 247 129 191 255
-0.04922476 -0.33770475 1.202 247 129 191 255
-0.046935238 -0.33770475 1.202 247 129 191 255
-0.20262285 -0.33541524 1.202 247 129 191 255
-0.20033334 -0.33541524 1.202 247 129 191 255
-0.19804381 -0.33541524 1.202 247 129 191 255
-0.19640572 -0.33653146 1.2060001 247 129 191 255
-0.19475238 -0.33764762 1.21 247 129 191 255
-0.19387905 -0.34015906 1.2190001 247 129 191 255
-0.19281431 -0.34239146 1.2270001 247 129 191 255
-0.19047716 -0.34239146 1.2270001 247 129 191 255
-0.18890668 -0.34378672 1.2320001 247 129 191 255
-0.18716572 -0.34490287 1.2360001 247 129 191 255
-0.18481143 -0.34490287 1.2360001 247 129 191 255
-0.18378572 -0.34741428 1.245 247 129 191 255
-0.18287145 -0.3502048 1.2550001 247 129 191 255
-0.1810562 -0.35132098 1.2590001 247 129 191 255
-0.080910474 -0.35383236 1.268 247 129 191 255
-0.078495234 -0.35383236 1.268 247 129 191 255
-0.075840004 -0.35271621 1.2640001 247 129 191 255
-0.072909534 -0.3502048 1.2550001 247 129 191 255
-0.070519052 -0.3502048 1.2550001 247 129 191 255
-0.067857139 -0.34880951 1.25 247 129 191 255
-0.064742863 -0.34490287 1.2360001 247 129 191 255
-0.06218667 -0.34378672 1.2320001 247 129 191 255
-0.059597149 -0.34239146 1.2270001 247 129 191 255
-0.056093335 -0.33541524 1.202 247 129 191 255
-0.053803809 -0.33541524 1.202 247 129 191 255
-0.051685717 -0.33653146 1.2060001 247 129 191 255
-0.04922476 -0.33541524 1.202 247 129 191 255
-0.046935238 -0.33541524 1.202 247 129 191 255
-0.20178001 -0.33173999 1.197 247 129 191 255
-0.19950001 -0.33173999 1.197 247 129 191 255
-0.19804381 -0.33312571 1.202 247 129 191 255
-0.19575429 -0.33312571 1.202 247 129 191 255
-0.19410858 -0.3342343 1.2060001 247 129 191 255
-0.19387905 -0.33783716 1.2190001 247 129 191 255
-0.19281431 -0.3400543 1.2270001 247 129 191 255
-0.19047716 -0.3400543 1.2270001 247 129 191 255
-0.18890668 -0.34144002 1.2320001 247 129 191 255
-0.18716572 -0.34254858 1.2360001 247 129 191 255
-0.18481143 -0.34254858 1.2360001 247 129 191 255
-0.18378572 -0.34504285 1.245 247 129 191 255
-0.18287145 -0.34781432 1.2550001 247 129 191 255
-0.18048097 -0.34781432 1.2550001 247 129 191 255
-0.1786581 -0.34892288 1.2590001 247 129 191 255
-0.17626001 -0.34892288 1.2590001 247 129 191 255
-0.083325714 -0.35141715 1.268 247 129 191 255
-0.080910474 -0.35141715 1.268 247 129 191 255
-0.078247622 -0.35030857 1.2640001 247 129 191 255
-0.075539999 -0.34892288 1.2590001 247 129 191 255
-0.072909534 -0.34781432 1.2550001 247 129 191 255
-0.070519052 -0.34781432 1.2550001 247 129 191 255
-0.067857139 -0.34642857 1.25 247 129 191 255
-0.064742863 -0.34254858 1.2360001 247 129 191 255
-0.06218667 -0.34144002 1.2320001 247 129 191 255
-0.059597149 -0.3400543 1.2270001 247 129 191 255
-0.056093335 -0.33312571 1.202 247 129 191 255
-0.053803809 -0.33312571 1.202 247 129 191 255
-0.051685717 -0.3342343 1.2060001 247 129 191 255
-0.04922476 -0.33312571 1.202 247 129 191 255
-0.046935238 -0.33312571 1.202 247 129 191 255
-0.20178001 -0.32946 1.197 247 129 191 255
-0.19950001 -0.32946 1.197 247 129 191 255
-0.19804381 -0.33083621 1.202 247 129 191 255
-0.19575429 -0.33083621 1.202 247 129 191 255
-0.19410858 -0.33193716 1.2060001 247 129 191 255
-0.19308382 -0.33413908 1.2140001 247 129 191 255
-0.19281431 -0.33771718 1.2270001 247 129 191 255
-0.19047716 -0.33771718 1.2270001 247 129 191 255
-0.18890668 -0.33909336 1.2320001 247 129 191 255
-0.18716572 -0.34019428 1.2360001 247 129 191 255
-0.18555905 -0.3415705 1.2410001 247 129 191 255
-0.18378572 -0.34267142 1.245 247 129 191 255
-0.18214285 -0.34404761 1.25 247 129 191 255
-0.18048097 -0.34542385 1.2550001 247 129 191 255
-0.1786581 -0.34652478 1.2590001 247 129 191 255
-0.17626001 -0.34652478 1.2590001 247 129 191 255
-0.17386191 -0.34652478 1.2590001 247 129 191 255
-0.080910474 -0.34900188 1.268 247 129 191 255
-0.078247622 -0.34790096 1.2640001 247 129 191 255
-0.075539999 -0.34652478 1.2590001 247 129 191 255
-0.072909534 -0.34542385 1.2550001 247 129 191 255
-0.070519052 -0.34542385 1.2550001 247 129 191 255
-0.067857139 -0.34404761 1.25 247 129 191 255
-0.064742863 -0.34019428 1.2360001 247 129 191 255
-0.06218667 -0.33909336 1.2320001 247 129 191 255
-0.059840005 -0.33909336 1.2320001 247 129 191 255
-0.057493336 -0.33909336 1.2320001 247 129 191 255
-0.053982858 -0.33193716 1.2060001 247 129 191 255
-0.051685717 -0.33193716 1.2060001 247 129 191 255
-0.04922476 -0.33083621 1.202 247 129 191 255
-0.046935238 -0.33083621 1.202 247 129 191 255
-0.20406 -0.32718 1.197 247 129 191 255
-0.20178001 -0.32718 1.197 247 129 191 255
-0.19950001 -0.32718 1.197 247 129 191 255
-0.19722001 -0.32718 1.197 247 129 191 255
-0.19575429 -0.32854667 1.202 247 129 191 255
-0.19410858 -0.32964003 1.2060001 247 129 191 255
-0.19308382 -0.33182669 1.2140001 247 129 191 255
-0.19218573 -0.33428666 1.223 247 129 191 255
-0.19047716 -0.33538005 1.2270001 247 129 191 255
-0.18890668 -0.33674669 1.2320001 247 129 191 255
-0.18716572 -0.33784002 1.2360001 247 129 191 255
-0.18555905 -0.3392067 1.2410001 247 129 191 255
-0.18378572 -0.34029999 1.245 247 129 191 255
-0.18214285 -0.34166667 1.25 247 129 191 255
-0.18048097 -0.34303334 1.2550001 247 129 191 255
-0.17809048 -0.34303334 1.2550001 247 129 191 255
-0.17626001 -0.34412667 1.2590001 247 129 191 255
-0.17386191 -0.34412667 1.2590001 247 129 191 255
-0.078247622 -0.34549335 1.2640001 247 129 191 255
-0.075300008 -0.34303334 1.2550001 247 129 191 255
-0.072909534 -0.34303334 1.2550001 247 129 191 255
-0.070238091 -0.34166667 1.25 247 129 191 255
-0.067368567 -0.3392067 1.2410001 247 129 191 255
-0.064742863 -0.33784002 1.2360001 247 129 191 255
-0.062388573 -0.33784002 1.2360001 247 129 191 255
-0.059840005 -0.33674669 1.2320001 247 129 191 255
-0.057260003 -0.33538005 1.2270001 247 129 191 255
-0.053982858 -0.32964003 1.2060001 247 129 191 255
-0.051685717 -0.32964003 1.2060001 247 129 191 255
-0.04922476 -0.32854667 1.202 247 129 191 255
-0.046935238 -0.32854667 1.202 247 129 191 255
-0.20406 -0.3249 1.197 247 129 191 255
-0.20178001 -0.3249 1.197 247 129 191 255
-0.19950001 -0.3249 1.197 247 129 191 255
-0.19722001 -0.3249 1.197 247 129 191 255
-0.19575429 -0.32625714 1.202 247 129 191 255
-0.19410858 -0.32734287 1.2060001 247 129 191 255
-0.19244762 -0.32842857 1.21 247 129 191 255
-0.19155715 -0.33087146 1.2190001 247 129 191 255
-0.1898562 -0.33195716 1.223 247 129 191 255
-0.18890668 -0.33440003 1.2320001 247 129 191 255
-0.18716572 -0.33548573 1.2360001 247 129 191 255
-0.18555905 -0.33684289 1.2410001 247 129 191 255
-0.18319525 -0.33684289 1.2410001 247 129 191 255
-0.18214285 -0.3392857 1.25 247 129 191 255
-0.1797619 -0.3392857 1.25 247 129 191 255
-0.17809048 -0.34064287 1.2550001 247 129 191 255
-0.17626001 -0.3417286 1.2590001 247 129 191 255
-0.17386191 -0.3417286 1.2590001 247 129 191 255
-0.078247622 -0.34308574 1.2640001 247 129 191 255
-0.075300008 -0.34064287 1.2550001 247 129 191 255
-0.072909534 -0.34064287 1.2550001 247 129 191 255
-0.070238091 -0.3392857 1.25 247 129 191 255
-0.067368567 -0.33684289 1.2410001 247 129 191 255
-0.064742863 -0.33548573 1.2360001 247 129 191 255
-0.06218667 -0.33440003 1.2320001 247 129 191 255
-0.059597149 -0.33304289 1.2270001 247 129 191 255
-0.056886673 -0.33087146 1.2190001 247 129 191 255
-0.053982858 -0.32734287 1.2060001 247 129 191 255
-0.051685717 -0.32734287 1.2060001 247 129 191 255
-0.04922476 -0.32625714 1.202 247 129 191 255
-0.046935238 -0.32625714 1.202 247 129 191 255
-0.044645716 -0.32625714 1.202 247 129 191 255
-0.20178001 -0.32262 1.197 247 129 191 255
-0.19950001 -0.32262 1.197 247 129 191 255
-0.19722001 -0.32262 1.197 247 129 191 255
-0.19575429 -0.32396764 1.202 247 129 191 255
-0.19410858 -0.32504573 1.2060001 247 129 191 255
-0.19244762 -0.32612383 1.21 247 129 191 255
-0.19077145 -0.32720193 1.2140001 247 129 191 255
-0.1898562 -0.32962763 1.223 247 129 191 255
-0.18814 -0.33070573 1.2270001 247 129 191 255
-0.18656002 -0.33205336 1.2320001 247 129 191 255
-0.18481143 -0.33313146 1.2360001 247 129 191 255
-0.18319525 -0.33447903 1.2410001 247 129 191 255
-0.18141429 -0.33555713 1.245 247 129 191 255
-0.1797619 -0.33690476 1.25 247 129 191 255
-0.17809048 -0.33825243 1.2550001 247 129 191 255
-0.17626001 -0.33933049 1.2590001 247 129 191 255
-0.078247622 -0.3406781 1.2640001 247 129 191 255
-0.075300008 -0.33825243 1.2550001 247 129 191 255
-0.072909534 -0.33825243 1.2550001 247 129 191 255
-0.070238091 -0.33690476 1.25 247 129 191 255
-0.067368567 -0.33447903 1.2410001 247 129 191 255
-0.064742863 -0.33313146 1.2360001 247 129 191 255
-0.06218667 -0.33205336 1.2320001 247 129 191 255
-0.059597149 -0.33070573 1.2270001 247 129 191 255
-0.056886673 -0.32854953 1.2190001 247 129 191 255
-0.054161906 -0.32612383 1.21 247 129 191 255
-0.051685717 -0.32504573 1.2060001 247 129 191 255
-0.04922476 -0.32396764 1.202 247 129 191 255
-0.046935238 -0.32396764 1.202 247 129 191 255
-0.044645716 -0.32396764 1.202 247 129 191 255
-0.20178001 -0.32033998 1.197 247 129 191 255
-0.19950001 -0.32033998 1.197 247 129 191 255
-0.19804381 -0.32167807 1.202 247 129 191 255
-0.19575429 -0.32167807 1.202 247 129 191 255
-0.19410858 -0.32274857 1.2060001 247 129 191 255
-0.19244762 -0.32381904 1.21 247 129 191 255
-0.19077145 -0.32488954 1.2140001 247 129 191 255
-0.1898562 -0.3272981 1.223 247 129 191 255
-0.18814 -0.32836857 1.2270001 247 129 191 255
-0.18656002 -0.32970667 1.2320001 247 129 191 255
-0.18481143 -0.33077714 1.2360001 247 129 191 255
-0.18319525 -0.33211523 1.2410001 247 129 191 255
-0.18141429 -0.3331857 1.245 247 129 191 255
-0.1797619 -0.3345238 1.25 247 129 191 255
-0.17809048 -0.33586192 1.2550001 247 129 191 255
-0.17570001 -0.33586192 1.2550001 247 129 191 255
-0.17386191 -0.33693239 1.2590001 247 129 191 255
-0.078247622 -0.33827049 1.2640001 247 129 191 255
-0.075300008 -0.33586192 1.2550001 247 129 191 255
-0.072909534 -0.33586192 1.2550001 247 129 191 255
-0.070238091 -0.3345238 1.25 247 129 191 255
-0.067097142 -0.33077714 1.2360001 247 129 191 255
-0.064742863 -0.33077714 1.2360001 247 129 191 255
-0.06218667 -0.32970667 1.2320001 247 129 191 255
-0.059597149 -0.32836857 1.2270001 247 129 191 255
-0.056886673 -0.32622764 1.2190001 247 129 191 255
-0.054161906 -0.32381904 1.21 247 129 191 255
-0.051857144 -0.32381904 1.21 247 129 191 255
-0.049388576 -0.32274857 1.2060001 247 129 191 255
-0.046935238 -0.32167807 1.202 247 129 191 255
-0.044645716 -0.32167807 1.202 247 129 191 255
-0.20110573 -0.31699714 1.1930001 247 129 191 255
-0.19883335 -0.31699714 1.1930001 247 129 191 255
-0.19722001 -0.31806001 1.197 247 129 191 255
-0.19494002 -0.31806001 1.197 247 129 191 255
-0.19346476 -0.31938857 1.202 247 129 191 255
-0.19244762 -0.32151428 1.21 247 129 191 255
-0.19077145 -0.32257715 1.2140001 247 129 191 255
-0.19047716 -0.32603148 1.2270001 247 129 191 255
-0.18890668 -0.32736003 1.2320001 247 129 191 255
-0.18716572 -0.32842287 1.2360001 247 129 191 255
-0.18555905 -0.32975143 1.2410001 247 129 191 255
-0.18319525 -0.32975143 1.2410001 247 129 191 255
-0.18141429 -0.3308143 1.245 247 129 191 255
-0.1797619 -0.33214286 1.25 247 129 191 255
-0.17809048 -0.33347145 1.2550001 247 129 191 255
-0.17570001 -0.33347145 1.2550001 247 129 191 255
-0.17386191 -0.33453429 1.2590001 247 129 191 255
-0.078247622 -0.33586285 1.2640001 247 129 191 255
-0.075539999 -0.33453429 1.2590001 247 129 191 255
-0.072909534 -0.33347145 1.2550001 247 129 191 255
-0.070238091 -0.33214286 1.25 247 129 191 255
-0.067097142 -0.32842287 1.2360001 247 129 191 255
-0.064742863 -0.32842287 1.2360001 247 129 191 255
-0.06218667 -0.32736003 1.2320001 247 129 191 255
-0.059597149 -0.32603148 1.2270001 247 129 191 255
-0.056886673 -0.32390574 1.2190001 247 129 191 255
-0.054340959 -0.32257715 1.2140001 247 129 191 255
-0.051857144 -0.32151428 1.21 247 129 191 255
-0.049388576 -0.32045144 1.2060001 247 129 191 255
-0.046935238 -0.31938857 1.202 247 129 191 255
-0.044645716 -0.31938857 1.202 247 129 191 255
-0.20110573 -0.31472477 1.1930001 247 129 191 255
-0.19883335 -0.31472477 1.1930001 247 129 191 255
-0.19722001 -0.31577998 1.197 247 129 191 255
-0.19494002 -0.31577998 1.197 247 129 191 255
-0.19346476 -0.31709906 1.202 247 129 191 255
-0.19244762 -0.31920955 1.21 247 129 191 255
-0.19077145 -0.32026479 1.2140001 247 129 191 255
-0.19047716 -0.32369432 1.2270001 247 129 191 255
-0.18890668 -0.32501337 1.2320001 247 129 191 255
-0.18716572 -0.32606858 1.2360001 247 129 191 255
-0.18555905 -0.32738763 1.2410001 247 129 191 255
-0.18378572 -0.32844284 1.245 247 129 191 255
-0.18141429 -0.32844284 1.245 247 129 191 255
-0.1797619 -0.32976189 1.25 247 129 191 255
-0.17809048 -0.33108097 1.2550001 247 129 191 255
-0.075539999 -0.33213618 1.2590001 247 129 191 255
-0.072909534 -0.33108097 1.2550001 247 129 191 255
-0.070238091 -0.32976189 1.25 247 129 191 255
-0.067097142 -0.32606858 1.2360001 247 129 191 255
-0.064742863 -0.32606858 1.2360001 247 129 191 255
-0.06218667 -0.32501337 1.2320001 247 129 191 255
-0.059597149 -0.32369432 1.2270001 247 129 191 255
-0.056886673 -0.32158384 1.2190001 247 129 191 255
-0.054340959 -0.32026479 1.2140001 247 129 191 255
-0.051857144 -0.31920955 1.21 247 129 191 255
-0.049388576 -0.31815431 1.2060001 247 129 191 255
-0.046935238 -0.31709906 1.202 247 129 191 255
-0.044645716 -0.31709906 1.202 247 129 191 255
-0.20110573 -0.31245238 1.1930001 247 129 191 255
-0.19883335 -0.31245238 1.1930001 247 129 191 255
-0.19722001 -0.31350002 1.197 247 129 191 255
-0.19494002 -0.31350002 1.197 247 129 191 255
-0.19346476 -0.31480953 1.202 247 129 191 255
-0.19181143 -0.31585717 1.2060001 247 129 191 255
-0.19014287 -0.31690475 1.21 247 129 191 255
-0.18923526 -0.31926194 1.2190001 247 129 191 255
-0.18814 -0.32135716 1.2270001 247 129 191 255
-0.18716572 -0.32371432 1.2360001 247 129 191 255
-0.18555905 -0.32502383 1.2410001 247 129 191 255
-0.18378572 -0.32607141 1.245 247 129 191 255
-0.18141429 -0.32607141 1.245 247 129 191 255
-0.1797619 -0.32738096 1.25 247 129 191 255
-0.17809048 -0.3286905 1.2550001 247 129 191 255
-0.078247622 -0.33104762 1.2640001 247 129 191 255
-0.075300008 -0.3286905 1.2550001 247 129 191 255
-0.072619043 -0.32738096 1.25 247 129 191 255
-0.070238091 -0.32738096 1.25 247 129 191 255
-0.067097142 -0.32371432 1.2360001 247 129 191 255
-0.064742863 -0.32371432 1.2360001 247 129 191 255
-0.06218667 -0.32266667 1.2320001 247 129 191 255
-0.059597149 -0.32135716 1.2270001 247 129 191 255
-0.057260003 -0.32135716 1.2270001 247 129 191 255
-0.054340959 -0.31795242 1.2140001 247 129 191 255
-0.051857144 -0.31690475 1.21 247 129 191 255
-0.049388576 -0.31585717 1.2060001 247 129 191 255
-0.047091432 -0.31585717 1.2060001 247 129 191 255
-0.20110573 -0.31018001 1.1930001 247 129 191 255
-0.19883335 -0.31018001 1.1930001 247 129 191 255
-0.19722001 -0.31121999 1.197 247 129 191 255
-0.19494002 -0.31121999 1.197 247 129 191 255
-0.19346476 -0.31252 1.202 247 129 191 255
-0.19181143 -0.31356004 1.2060001 247 129 191 255
-0.19014287 -0.31460002 1.21 247 129 191 255
-0.18923526 -0.31694001 1.2190001 247 129 191 255
-0.18814 -0.31902003 1.2270001 247 129 191 255
-0.18716572 -0.32135999 1.2360001 247 129 191 255
-0.18555905 -0.32266003 1.2410001 247 129 191 255
-0.18378572 -0.32370001 1.245 247 129 191 255
-0.18141429 -0.32370001 1.245 247 129 191 255
-0.1797619 -0.32499999 1.25 247 129 191 255
-0.17809048 -0.32630002 1.2550001 247 129 191 255
-0.08065524 -0.32864001 1.2640001 247 129 191 255
-0.078247622 -0.32864001 1.2640001 247 129 191 255
-0.075300008 -0.32630002 1.2550001 247 129 191 255
-0.072619043 -0.32499999 1.25 247 129 191 255
-0.070238091 -0.32499999 1.25 247 129 191 255
-0.067097142 -0.32135999 1.2360001 247 129 191 255
-0.064742863 -0.32135999 1.2360001 247 129 191 255
-0.06218667 -0.32032001 1.2320001 247 129 191 255
-0.059597149 -0.31902003 1.2270001 247 129 191 255
-0.057260003 -0.31902003 1.2270001 247 129 191 255
-0.054922864 -0.31902003 1.2270001 247 129 191 255
-0.052585717 -0.31902003 1.2270001 247 129 191 255
-0.20110573 -0.30790761 1.1930001 247 129 191 255
-0.19883335 -0.30790761 1.1930001 247 129 191 255
-0.19656096 -0.30790761 1.1930001 247 129 191 255
-0.19428858 -0.30790761 1.1930001 247 129 191 255
-0.19266 -0.30893999 1.197 247 129 191 255
-0.19244762 -0.31229523 1.21 247 129 191 255
-0.19077145 -0.31332764 1.2140001 247 129 191 255
-0.1898562 -0.31565049 1.223 247 129 191 255
-0.18890668 -0.31797338 1.2320001 247 129 191 255
-0.18716572 -0.31900573 1.2360001 247 129 191 255
-0.18555905 -0.3202962 1.2410001 247 129 191 255
-0.18378572 -0.32132855 1.245 247 129 191 255
-0.18141429 -0.32132855 1.245 247 129 191 255
-0.1797619 -0.32261905 1.25 247 129 191 255
-0.17809048 -0.32390955 1.2550001 247 129 191 255
-0.078247622 -0.32623237 1.2640001 247 129 191 255
-0.075539999 -0.32494193 1.2590001 247 129 191 255
-0.072619043 -0.32261905 1.25 247 129 191 255
-0.070238091 -0.32261905 1.25 247 129 191 255
-0.067097142 -0.31900573 1.2360001 247 129 191 255
-0.064533345 -0.31797338 1.2320001 247 129 191 255
-0.06218667 -0.31797338 1.2320001 247 129 191 255
-0.059597149 -0.31668288 1.2270001 247 129 191 255
-0.057260003 -0.31668288 1.2270001 247 129 191 255
-0.054922864 -0.31668288 1.2270001 247 129 191 255
-0.20201428 -0.30358574 1.1850001 247 129 191 255
-0.19975714 -0.30358574 1.1850001 247 129 191 255
-0.19816667 -0.30461049 1.189 247 129 191 255
-0.19656096 -0.30563524 1.1930001 247 129 191 255
-0.19428858 -0.30563524 1.1930001 247 129 191 255
-0.19266 -0.30666 1.197 247 129 191 255
-0.19244762 -0.3099905 1.21 247 129 191 255
-0.19014287 -0.3099905 1.21 247 129 191 255
-0.1898562 -0.31332093 1.223 247 129 191 255
-0.18890668 -0.31562668 1.2320001 247 129 191 255
-0.18716572 -0.31665143 1.2360001 247 129 191 255
-0.18555905 -0.3179324 1.2410001 247 129 191 255
-0.18378572 -0.31895715 1.245 247 129 191 255
-0.18214285 -0.32023808 1.25 247 129 191 255
-0.18048097 -0.32151908 1.2550001 247 129 191 255
-0.17809048 -0.32151908 1.2550001 247 129 191 255
-0.075539999 -0.32254383 1.2590001 247 129 191 255
-0.072619043 -0.32023808 1.25 247 129 191 255
-0.069732383 -0.3179324 1.2410001 247 129 191 255
-0.067097142 -0.31665143 1.2360001 247 129 191 255
-0.064533345 -0.31562668 1.2320001 247 129 191 255
-0.06218667 -0.31562668 1.2320001 247 129 191 255
-0.059597149 -0.31434572 1.2270001 247 129 191 255
-0.057260003 -0.31434572 1.2270001 247 129 191 255
-0.054922864 -0.31434572 1.2270001 247 129 191 255
-0.20201428 -0.3013286 1.1850001 247 129 191 255
-0.19975714 -0.3013286 1.1850001 247 129 191 255
-0.19816667 -0.30234572 1.189 247 129 191 255
-0.19656096 -0.30336285 1.1930001 247 129 191 255
-0.19428858 -0.30336285 1.1930001 247 129 191 255
-0.19266 -0.30438 1.197 247 129 191 255
-0.19244762 -0.30768573 1.21 247 129 191 255
-0.19014287 -0.30768573 1.21 247 129 191 255
-0.1898562 -0.31099144 1.223 247 129 191 255
-0.18814 -0.31200862 1.2270001 247 129 191 255
-0.18716572 -0.31429717 1.2360001 247 129 191 255
-0.18555905 -0.3155686 1.2410001 247 129 191 255
-0.18378572 -0.31658572 1.245 247 129 191 255
-0.18214285 -0.31785715 1.25 247 129 191 255
-0.18048097 -0.3191286 1.2550001 247 129 191 255
-0.17809048 -0.3191286 1.2550001 247 129 191 255
-0.075539999 -0.32014573 1.2590001 247 129 191 255
-0.072619043 -0.31785715 1.25 247 129 191 255
-0.069732383 -0.3155686 1.2410001 247 129 191 255
-0.067097142 -0.31429717 1.2360001 247 129 191 255
-0.064742863 -0.31429717 1.2360001 247 129 191 255
-0.06218667 -0.31328002 1.2320001 247 129 191 255
-0.059840005 -0.31328002 1.2320001 247 129 191 255
-0.057493336 -0.31328002 1.2320001 247 129 191 255
-0.055146672 -0.31328002 1.2320001 247 129 191 255
-0.20201428 -0.29907146 1.1850001 247 129 191 255
-0.19975714 -0.29907146 1.1850001 247 129 191 255
-0.19816667 -0.30008096 1.189 247 129 191 255
-0.19656096 -0.30109048 1.1930001 247 129 191 255
-0.19494002 -0.3021 1.197 247 129 191 255
-0.19346476 -0.30336189 1.202 247 129 191 255
-0.19244762 -0.30538097 1.21 247 129 191 255
-0.19077145 -0.30639049 1.2140001 247 129 191 255
-0.18923526 -0.30765241 1.2190001 247 129 191 255
-0.18752667 -0.30866191 1.223 247 129 191 255
-0.18716572 -0.31194288 1.2360001 247 129 191 255
-0.18555905 -0.31320477 1.2410001 247 129 191 255
-0.18378572 -0.31421426 1.245 247 129 191 255
-0.18214285 -0.31547618 1.25 247 129 191 255
-0.1797619 -0.31547618 1.25 247 129 191 255
-0.17809048 -0.31673813 1.2550001 247 129 191 255
-0.17570001 -0.31673813 1.2550001 247 129 191 255
-0.075539999 -0.31774762 1.2590001 247 129 191 255
-0.072909534 -0.31673813 1.2550001 247 129 191 255
-0.069957145 -0.31421426 1.245 247 129 191 255
-0.067097142 -0.31194288 1.2360001 247 129 191 255
-0.064742863 -0.31194288 1.2360001 247 129 191 255
-0.06218667 -0.31093338 1.2320001 247 129 191 255
-0.059840005 -0.31093338 1.2320001 247 129 191 255
-0.057493336 -0.31093338 1.2320001 247 129 191 255
-0.20133239 -0.2958124 1.1810001 247 129 191 255
-0.19908287 -0.2958124 1.1810001 247 129 191 255
-0.19750001 -0.29681432 1.1850001 247 129 191 255
-0.19656096 -0.29881811 1.1930001 247 129 191 255
-0.19494002 -0.29982001 1.197 247 129 191 255
-0.19410858 -0.30207428 1.2060001 247 129 191 255
-0.19308382 -0.3040781 1.2140001 247 129 191 255
-0.19077145 -0.3040781 1.2140001 247 129 191 255
-0.18923526 -0.30533049 1.2190001 247 129 191 255
-0.18752667 -0.30633238 1.223 247 129 191 255
-0.18656002 -0.30858669 1.2320001 247 129 191 255
-0.18555905 -0.31084096 1.2410001 247 129 191 255
-0.18378572 -0.31184286 1.245 247 129 191 255
-0.18214285 -0.31309524 1.25 247 129 191 255
-0.1797619 -0.31309524 1.25 247 129 191 255
-0.17809048 -0.31434765 1.2550001 247 129 191 255
-0.17570001 -0.31434765 1.2550001 247 129 191 255
-0.075539999 -0.31534952 1.2590001 247 129 191 255
-0.072909534 -0.31434765 1.2550001 247 129 191 255
-0.070238091 -0.31309524 1.25 247 129 191 255
-0.067097142 -0.30958858 1.2360001 247 129 191 255
-0.064742863 -0.30958858 1.2360001 247 129 191 255
-0.062388573 -0.30958858 1.2360001 247 129 191 255
-0.060034286 -0.30958858 1.2360001 247 129 191 255
-0.19996858 -0.2915743 1.1730001 247 129 191 255
-0.1977343 -0.2915743 1.1730001 247 129 191 255
-0.19683334 -0.29356289 1.1810001 247 129 191 255
-0.19656096 -0.29654571 1.1930001 247 129 191 255
-0.19428858 -0.29654571 1.1930001 247 129 191 255
-0.19266 -0.29753998 1.197 247 129 191 255
-0.19244762 -0.30077142 1.21 247 129 191 255
-0.19077145 -0.30176574 1.2140001 247 129 191 255
-0.1898562 -0.30400285 1.223 247 129 191 255
-0.18752667 -0.30400285 1.223 247 129 191 255
-0.18656002 -0.30624002 1.2320001 247 129 191 255
-0.18481143 -0.30723429 1.2360001 247 129 191 255
-0.18378572 -0.30947143 1.245 247 129 191 255
-0.18214285 -0.31071427 1.25 247 129 191 255
-0.16374762 -0.31195715 1.2550001 247 129 191 255
-0.16135716 -0.31195715 1.2550001 247 129 191 255
-0.15896668 -0.31195715 1.2550001 247 129 191 255
-0.1565762 -0.31195715 1.2550001 247 129 191 255
-0.15418573 -0.31195715 1.2550001 247 129 191 255
-0.077938102 -0.31295145 1.2590001 247 129 191 255
-0.075539999 -0.31295145 1.2590001 247 129 191 255
-0.072909534 -0.31195715 1.2550001 247 129 191 255
-0.070519052 -0.31195715 1.2550001 247 129 191 255
-0.067368567 -0.30847713 1.2410001 247 129 191 255
-0.064742863 -0.30723429 1.2360001 247 129 191 255
-0.062388573 -0.30723429 1.2360001 247 129 191 255
-0.060034286 -0.30723429 1.2360001 247 129 191 255
-0.19996858 -0.28934002 1.1730001 247 129 191 255
-0.1977343 -0.28934002 1.1730001 247 129 191 255
-0.19616666 -0.29032668 1.177 247 129 191 255
-0.19590192 -0.29328665 1.189 247 129 191 255
-0.19428858 -0.29427335 1.1930001 247 129 191 255
-0.19201621 -0.29427335 1.1930001 247 129 191 255
-0.19244762 -0.29846668 1.21 247 129 191 255
-0.19077145 -0.29945335 1.2140001 247 129 191 255
-0.18923526 -0.30068669 1.2190001 247 129 191 255
-0.18752667 -0.30167335 1.223 247 129 191 255
-0.18580288 -0.30266002 1.2270001 247 129 191 255
-0.18481143 -0.30488002 1.2360001 247 129 191 255
-0.18378572 -0.3071 1.245 247 129 191 255
-0.18141429 -0.3071 1.245 247 129 191 255
-0.1797619 -0.30833334 1.25 247 129 191 255
-0.16374762 -0.30956671 1.2550001 247 129 191 255
-0.16135716 -0.30956671 1.2550001 247 129 191 255
-0.15896668 -0.30956671 1.2550001 247 129 191 255
-0.1565762 -0.30956671 1.2550001 247 129 191 255
-0.077938102 -0.31055334 1.2590001 247 129 191 255
-0.075539999 -0.31055334 1.2590001 247 129 191 255
-0.072909534 -0.30956671 1.2550001 247 129 191 255
-0.070238091 -0.30833334 1.25 247 129 191 255
-0.067097142 -0.30488002 1.2360001 247 129 191 255
-0.064742863 -0.30488002 1.2360001 247 129 191 255
-0.062388573 -0.30488002 1.2360001 247 129 191 255
-0.060714286 -0.30833334 1.25 247 129 191 255
-0.19996858 -0.28710574 1.1730001 247 129 191 255
-0.1977343 -0.28710574 1.1730001 247 129 191 255
-0.19616666 -0.28808478 1.177 247 129 191 255
-0.19524287 -0.29004288 1.1850001 247 129 191 255
-0.19363715 -0.29102191 1.189 247 129 191 255
-0.19201621 -0.29200095 1.1930001 247 129 191 255
-0.19244762 -0.29616189 1.21 247 129 191 255
-0.19077145 -0.29714096 1.2140001 247 129 191 255
-0.18923526 -0.29836479 1.2190001 247 129 191 255
-0.18752667 -0.29934382 1.223 247 129 191 255
-0.18580288 -0.30032286 1.2270001 247 129 191 255
-0.18421334 -0.30154669 1.2320001 247 129 191 255
