ply
format ascii 1.0
comment PCL generated
element vertex 954
property float x
property float y
property float z
property uchar red
property uchar green
property uchar blue
property uchar alpha
element camera 0
property float view_px
property float view_py
property float view_pz
property float x_axisx
property float x_axisy
property float x_axisz
property float y_axisx
property float y_axisy
property float y_axisz
property float z_axisx
property float z_axisy
property float z_axisz
property float focal
property float scalex
property float scaley
property float centerx
property float centery
property int viewportx
property int viewporty
property float k1
property float k2
end_header
0.00056761905 -0.25031999 0.59600002 55 126 184 255
0.0017 -0.24990001 0.59500003 55 126 184 255
0.0028285717 -0.24948001 0.59400004 55 126 184 255
0.0039466666 -0.24863999 0.59200001 55 126 184 255
0.0050742859 -0.24863999 0.59200001 55 126 184 255
0.097062856 -0.25031999 0.59600002 55 126 184 255
0.098198093 -0.25031999 0.59600002 55 126 184 255
0.099333338 -0.25031999 0.59600002 55 126 184 255
0.10046858 -0.25031999 0.59600002 55 126 184 255
0.10160381 -0.25031999 0.59600002 55 126 184 255
0.10273904 -0.25031999 0.59600002 55 126 184 255
0.10387429 -0.25031999 0.59600002 55 126 184 255
0.10500953 -0.25031999 0.59600002 55 126 184 255
0.10614476 -0.25031999 0.59600002 55 126 184 255
0.10728 -0.25031999 0.59600002 55 126 184 255
0.10841525 -0.25031999 0.59600002 55 126 184 255
0.10955048 -0.25031999 0.59600002 55 126 184 255
0.11068571 -0.25031999 0.59600002 55 126 184 255
0.11182095 -0.25031999 0.59600002 55 126 184 255
-0.0062542856 -0.24960287 0.597 55 126 184 255
-0.005117143 -0.24960287 0.597 55 126 184 255
-0.00398 -0.24960287 0.597 55 126 184 255
-0.0028428573 -0.24960287 0.597 55 126 184 255
-0.0017028572 -0.24918477 0.59600002 55 126 184 255
-0.00056666671 -0.24876668 0.59500003 55 126 184 255
0.00056666671 -0.24876668 0.59500003 55 126 184 255
0.001697143 -0.24834859 0.59400004 55 126 184 255
0.0028238096 -0.2479305 0.59300005 55 126 184 255
0.0039466666 -0.24751239 0.59200001 55 126 184 255
0.0050742859 -0.24751239 0.59200001 55 126 184 255
0.097062856 -0.24918477 0.59600002 55 126 184 255
0.098198093 -0.24918477 0.59600002 55 126 184 255
0.099333338 -0.24918477 0.59600002 55 126 184 255
0.10046858 -0.24918477 0.59600002 55 126 184 255
0.10143334 -0.24876668 0.59500003 55 126 184 255
0.10256667 -0.24876668 0.59500003 55 126 184 255
0.10387429 -0.24918477 0.59600002 55 126 184 255
0.10500953 -0.24918477 0.59600002 55 126 184 255
0.10614476 -0.24918477 0.59600002 55 126 184 255
0.10728 -0.24918477 0.59600002 55 126 184 255
0.10841525 -0.24918477 0.59600002 55 126 184 255
0.10955048 -0.24918477 0.59600002 55 126 184 255
0.11068571 -0.24918477 0.59600002 55 126 184 255
0.11182095 -0.24918477 0.59600002 55 126 184 255
-0.0062647625 -0.24888192 0.59800005 55 126 184 255
-0.005117143 -0.24846572 0.597 55 126 184 255
-0.00398 -0.24846572 0.597 55 126 184 255
-0.0028428573 -0.24846572 0.597 55 126 184 255
-0.0017028572 -0.24804951 0.59600002 55 126 184 255
-0.00056666671 -0.24763334 0.59500003 55 126 184 255
0.00056666671 -0.24763334 0.59500003 55 126 184 255
0.001697143 -0.24721715 0.59400004 55 126 184 255
0.0028238096 -0.24680097 0.59300005 55 126 184 255
0.0039466666 -0.24638477 0.59200001 55 126 184 255
0.0050742859 -0.24638477 0.59200001 55 126 184 255
0.095905714 -0.25096288 0.60300004 55 126 184 255
0.097054288 -0.25096288 0.60300004 55 126 184 255
0.097225711 -0.24846572 0.597 55 126 184 255
0.098362856 -0.24846572 0.597 55 126 184 255
0.099333338 -0.24804951 0.59600002 55 126 184 255
0.1003 -0.24763334 0.59500003 55 126 184 255
0.10143334 -0.24763334 0.59500003 55 126 184 255
0.10256667 -0.24763334 0.59500003 55 126 184 255
0.1037 -0.24763334 0.59500003 55 126 184 255
0.10483333 -0.24763334 0.59500003 55 126 184 255
0.10596667 -0.24763334 0.59500003 55 126 184 255
0.1071 -0.24763334 0.59500003 55 126 184 255
0.10823333 -0.24763334 0.59500003 55 126 184 255
0.10936667 -0.24763334 0.59500003 55 126 184 255
0.11068571 -0.24804951 0.59600002 55 126 184 255
-0.0051085716 -0.2469143 0.59600002 55 126 184 255
-0.0039733332 -0.2469143 0.59600002 55 126 184 255
-0.0028380952 -0.2469143 0.59600002 55 126 184 255
-0.0017028572 -0.2469143 0.59600002 55 126 184 255
-0.00056666671 -0.24650002 0.59500003 55 126 184 255
0.00056666671 -0.24650002 0.59500003 55 126 184 255
0.001697143 -0.24608572 0.59400004 55 126 184 255
0.0028238096 -0.24567144 0.59300005 55 126 184 255
0.0039466666 -0.24525712 0.59200001 55 126 184 255
0.0050742859 -0.24525712 0.59200001 55 126 184 255
0.094600007 -0.24940002 0.60200006 55 126 184 255
0.095746674 -0.24940002 0.60200006 55 126 184 255
0.09689334 -0.24940002 0.60200006 55 126 184 255
0.097225711 -0.24732858 0.597 55 126 184 255
0.098362856 -0.24732858 0.597 55 126 184 255
0.099333338 -0.2469143 0.59600002 55 126 184 255
0.1003 -0.24650002 0.59500003 55 126 184 255
0.10143334 -0.24650002 0.59500003 55 126 184 255
0.10256667 -0.24650002 0.59500003 55 126 184 255
0.1037 -0.24650002 0.59500003 55 126 184 255
0.10483333 -0.24650002 0.59500003 55 126 184 255
0.10596667 -0.24650002 0.59500003 55 126 184 255
0.1071 -0.24650002 0.59500003 55 126 184 255
0.10823333 -0.24650002 0.59500003 55 126 184 255
0.10936667 -0.24650002 0.59500003 55 126 184 255
-0.0051085716 -0.24577904 0.59600002 55 126 184 255
-0.0039733332 -0.24577904 0.59600002 55 126 184 255
-0.0028380952 -0.24577904 0.59600002 55 126 184 255
-0.0017028572 -0.24577904 0.59600002 55 126 184 255
-0.00056666671 -0.24536668 0.59500003 55 126 184 255
0.00056666671 -0.24536668 0.59500003 55 126 184 255
0.0017 -0.24536668 0.59500003 55 126 184 255
0.0028285717 -0.2449543 0.59400004 55 126 184 255
0.0039466666 -0.24412952 0.59200001 55 126 184 255
0.0050742859 -0.24412952 0.59200001 55 126 184 255
0.094600007 -0.24825335 0.60200006 55 126 184 255
0.095746674 -0.24825335 0.60200006 55 126 184 255
0.09689334 -0.24825335 0.60200006 55 126 184 255
0.097062856 -0.24577904 0.59600002 55 126 184 255
0.098198093 -0.24577904 0.59600002 55 126 184 255
0.099333338 -0.24577904 0.59600002 55 126 184 255
0.1003 -0.24536668 0.59500003 55 126 184 255
0.10143334 -0.24536668 0.59500003 55 126 184 255
0.10256667 -0.24536668 0.59500003 55 126 184 255
0.1037 -0.24536668 0.59500003 55 126 184 255
0.10483333 -0.24536668 0.59500003 55 126 184 255
0.10596667 -0.24536668 0.59500003 55 126 184 255
0.1071 -0.24536668 0.59500003 55 126 184 255
0.10823333 -0.24536668 0.59500003 55 126 184 255
0.10936667 -0.24536668 0.59500003 55 126 184 255
0.11050001 -0.24536668 0.59500003 55 126 184 255
-0.0051085716 -0.24464381 0.59600002 55 126 184 255
-0.0039733332 -0.24464381 0.59600002 55 126 184 255
-0.0028380952 -0.24464381 0.59600002 55 126 184 255
-0.0017 -0.24423334 0.59500003 55 126 184 255
-0.00056666671 -0.24423334 0.59500003 55 126 184 255
0.00056666671 -0.24423334 0.59500003 55 126 184 255
0.0017 -0.24423334 0.59500003 55 126 184 255
0.0028285717 -0.24382286 0.59400004 55 126 184 255
0.0039466666 -0.24300191 0.59200001 55 126 184 255
0.0050742859 -0.24300191 0.59200001 55 126 184 255
0.097062856 -0.24464381 0.59600002 55 126 184 255
0.098198093 -0.24464381 0.59600002 55 126 184 255
0.099333338 -0.24464381 0.59600002 55 126 184 255
0.1003 -0.24423334 0.59500003 55 126 184 255
0.10143334 -0.24423334 0.59500003 55 126 184 255
0.10256667 -0.24423334 0.59500003 55 126 184 255
0.1037 -0.24423334 0.59500003 55 126 184 255
0.10465715 -0.24382286 0.59400004 55 126 184 255
0.10578858 -0.24382286 0.59400004 55 126 184 255
0.10692 -0.24382286 0.59400004 55 126 184 255
0.10805143 -0.24382286 0.59400004 55 126 184 255
0.10918286 -0.24382286 0.59400004 55 126 184 255
0.11031429 -0.24382286 0.59400004 55 126 184 255
-0.0073914286 -0.24391715 0.597 55 126 184 255
-0.0062542856 -0.24391715 0.597 55 126 184 255
-0.0051085716 -0.24350858 0.59600002 55 126 184 255
-0.0039733332 -0.24350858 0.59600002 55 126 184 255
-0.0028380952 -0.24350858 0.59600002 55 126 184 255
-0.0017 -0.2431 0.59500003 55 126 184 255
-0.00056666671 -0.2431 0.59500003 55 126 184 255
0.00056666671 -0.2431 0.59500003 55 126 184 255
0.0017 -0.2431 0.59500003 55 126 184 255
0.0028285717 -0.24269144 0.59400004 55 126 184 255
0.0039533339 -0.24228287 0.59300005 55 126 184 255
0.0050828573 -0.24228287 0.59300005 55 126 184 255
0.0062333331 -0.2431 0.59500003 55 126 184 255
0.052114289 -0.23533715 0.57600003 55 126 184 255
0.053211428 -0.23533715 0.57600003 55 126 184 255
0.054308575 -0.23533715 0.57600003 55 126 184 255
0.055405717 -0.23533715 0.57600003 55 126 184 255
0.056600954 -0.23574571 0.57700002 55 126 184 255
0.057800002 -0.23615429 0.57800001 55 126 184 255
0.097062856 -0.24350858 0.59600002 55 126 184 255
0.098198093 -0.24350858 0.59600002 55 126 184 255
0.099166676 -0.2431 0.59500003 55 126 184 255
0.1003 -0.2431 0.59500003 55 126 184 255
0.10126286 -0.24269144 0.59400004 55 126 184 255
0.10239429 -0.24269144 0.59400004 55 126 184 255
0.1037 -0.2431 0.59500003 55 126 184 255
0.10465715 -0.24269144 0.59400004 55 126 184 255
0.10578858 -0.24269144 0.59400004 55 126 184 255
0.10692 -0.24269144 0.59400004 55 126 184 255
0.10786953 -0.24228287 0.59300005 55 126 184 255
0.10899906 -0.24228287 0.59300005 55 126 184 255
0.11012858 -0.24228287 0.59300005 55 126 184 255
-0.0073914286 -0.24278 0.597 55 126 184 255
-0.0062542856 -0.24278 0.597 55 126 184 255
-0.0051085716 -0.24237333 0.59600002 55 126 184 255
-0.0039733332 -0.24237333 0.59600002 55 126 184 255
-0.0028380952 -0.24237333 0.59600002 55 126 184 255
-0.0017 -0.24196668 0.59500003 55 126 184 255
-0.00056666671 -0.24196668 0.59500003 55 126 184 255
0.00056666671 -0.24196668 0.59500003 55 126 184 255
0.0017 -0.24196668 0.59500003 55 126 184 255
0.0028285717 -0.24156001 0.59400004 55 126 184 255
0.0039600004 -0.24156001 0.59400004 55 126 184 255
0.0050914288 -0.24156001 0.59400004 55 126 184 255
0.0062333331 -0.24196668 0.59500003 55 126 184 255
0.049920004 -0.23424001 0.57600003 55 126 184 255
0.051017147 -0.23424001 0.57600003 55 126 184 255
0.052114289 -0.23424001 0.57600003 55 126 184 255
0.053211428 -0.23424001 0.57600003 55 126 184 255
0.054308575 -0.23424001 0.57600003 55 126 184 255
0.055405717 -0.23424001 0.57600003 55 126 184 255
0.056600954 -0.23464668 0.57700002 55 126 184 255
0.057800002 -0.23505333 0.57800001 55 126 184 255
0.059002861 -0.23546001 0.57900006 55 126 184 255
0.094792388 -0.24237333 0.59600002 55 126 184 255
0.095927618 -0.24237333 0.59600002 55 126 184 255
0.097062856 -0.24237333 0.59600002 55 126 184 255
0.098033339 -0.24196668 0.59500003 55 126 184 255
0.099000007 -0.24156001 0.59400004 55 126 184 255
0.09996286 -0.24115336 0.59300005 55 126 184 255
0.10109239 -0.24115336 0.59300005 55 126 184 255
0.10222191 -0.24115336 0.59300005 55 126 184 255
0.10335144 -0.24115336 0.59300005 55 126 184 255
0.10430477 -0.24074666 0.59200001 55 126 184 255
0.10543238 -0.24074666 0.59200001 55 126 184 255
0.10656 -0.24074666 0.59200001 55 126 184 255
0.10768761 -0.24074666 0.59200001 55 126 184 255
0.10899906 -0.24115336 0.59300005 55 126 184 255
0.11012858 -0.24115336 0.59300005 55 126 184 255
-0.0085571436 -0.24245238 0.59900004 55 126 184 255
-0.0073914286 -0.24164286 0.597 55 126 184 255
-0.0062542856 -0.24164286 0.597 55 126 184 255
-0.0051085716 -0.2412381 0.59600002 55 126 184 255
-0.0039733332 -0.2412381 0.59600002 55 126 184 255
-0.0028380952 -0.2412381 0.59600002 55 126 184 255
-0.0017 -0.24083334 0.59500003 55 126 184 255
-0.00056666671 -0.24083334 0.59500003 55 126 184 255
0.00056666671 -0.24083334 0.59500003 55 126 184 255
0.0017 -0.24083334 0.59500003 55 126 184 255
0.0028333333 -0.24083334 0.59500003 55 126 184 255
0.0039666668 -0.24083334 0.59500003 55 126 184 255
0.0051000006 -0.24083334 0.59500003 55 126 184 255
0.0062333331 -0.24083334 0.59500003 55 126 184 255
0.007366667 -0.24083334 0.59500003 55 126 184 255
0.049920004 -0.23314287 0.57600003 55 126 184 255
0.051017147 -0.23314287 0.57600003 55 126 184 255
0.052114289 -0.23314287 0.57600003 55 126 184 255
0.053211428 -0.23314287 0.57600003 55 126 184 255
0.054402858 -0.23354763 0.57700002 55 126 184 255
0.055501904 -0.23354763 0.57700002 55 126 184 255
0.056699049 -0.23395239 0.57800001 55 126 184 255
0.057900004 -0.23435716 0.57900006 55 126 184 255
0.059002861 -0.23435716 0.57900006 55 126 184 255
0.060209528 -0.23476192 0.58000004 55 126 184 255
0.093500003 -0.24083334 0.59500003 55 126 184 255
0.094474293 -0.24042858 0.59400004 55 126 184 255
0.095605724 -0.24042858 0.59400004 55 126 184 255
0.096900001 -0.24083334 0.59500003 55 126 184 255
0.097868577 -0.24042858 0.59400004 55 126 184 255
0.098833337 -0.24002384 0.59300005 55 126 184 255
0.09996286 -0.24002384 0.59300005 55 126 184 255
0.10092191 -0.23961905 0.59200001 55 126 184 255
0.10204952 -0.23961905 0.59200001 55 126 184 255
0.10317714 -0.23961905 0.59200001 55 126 184 255
0.10430477 -0.23961905 0.59200001 55 126 184 255
0.10543238 -0.23961905 0.59200001 55 126 184 255
0.10656 -0.23961905 0.59200001 55 126 184 255
0.10768761 -0.23961905 0.59200001 55 126 184 255
0.10881524 -0.23961905 0.59200001 55 126 184 255
0.10994286 -0.23961905 0.59200001 55 126 184 255
-0.0085571436 -0.24131145 0.59900004 55 126 184 255
-0.0073914286 -0.24050571 0.597 55 126 184 255
-0.0062438096 -0.24010286 0.59600002 55 126 184 255
-0.0051085716 -0.24010286 0.59600002 55 126 184 255
-0.0039666668 -0.2397 0.59500003 55 126 184 255
-0.0028333333 -0.2397 0.59500003 55 126 184 255
-0.0017 -0.2397 0.59500003 55 126 184 255
-0.00056666671 -0.2397 0.59500003 55 126 184 255
0.00056666671 -0.2397 0.59500003 55 126 184 255
0.0017 -0.2397 0.59500003 55 126 184 255
0.0028333333 -0.2397 0.59500003 55 126 184 255
0.0039666668 -0.2397 0.59500003 55 126 184 255
0.0051000006 -0.2397 0.59500003 55 126 184 255
0.0062228576 -0.23929717 0.59400004 55 126 184 255
0.007354286 -0.23929717 0.59400004 55 126 184 255
0.051105715 -0.23244858 0.57700002 55 126 184 255
0.052204765 -0.23244858 0.57700002 55 126 184 255
0.053303812 -0.23244858 0.57700002 55 126 184 255
0.054402858 -0.23244858 0.57700002 55 126 184 255
0.055501904 -0.23244858 0.57700002 55 126 184 255
0.056895241 -0.23365715 0.58000004 55 126 184 255
0.058000006 -0.23365715 0.58000004 55 126 184 255
0.059104767 -0.23365715 0.58000004 55 126 184 255
0.060209528 -0.23365715 0.58000004 55 126 184 255
0.09092667 -0.2388943 0.59300005 55 126 184 255
0.0920562 -0.2388943 0.59300005 55 126 184 255
0.093185723 -0.2388943 0.59300005 55 126 184 255
0.094315246 -0.2388943 0.59300005 55 126 184 255
0.095444769 -0.2388943 0.59300005 55 126 184 255
0.096737146 -0.23929717 0.59400004 55 126 184 255
0.097703822 -0.2388943 0.59300005 55 126 184 255
0.098833337 -0.2388943 0.59300005 55 126 184 255
0.099794291 -0.23849143 0.59200001 55 126 184 255
0.10092191 -0.23849143 0.59200001 55 126 184 255
0.10204952 -0.23849143 0.59200001 55 126 184 255
0.10317714 -0.23849143 0.59200001 55 126 184 255
0.10430477 -0.23849143 0.59200001 55 126 184 255
0.10543238 -0.23849143 0.59200001 55 126 184 255
0.10656 -0.23849143 0.59200001 55 126 184 255
0.10768761 -0.23849143 0.59200001 55 126 184 255
0.10881524 -0.23849143 0.59200001 55 126 184 255
0.10994286 -0.23849143 0.59200001 55 126 184 255
-0.0085571436 -0.24017049 0.59900004 55 126 184 255
-0.0073914286 -0.23936857 0.597 55 126 184 255
-0.0062438096 -0.23896761 0.59600002 55 126 184 255
-0.0051000006 -0.23856667 0.59500003 55 126 184 255
-0.0039600004 -0.23816574 0.59400004 55 126 184 255
-0.0028285717 -0.23816574 0.59400004 55 126 184 255
-0.001697143 -0.23816574 0.59400004 55 126 184 255
-0.00056571432 -0.23816574 0.59400004 55 126 184 255
0.00056571432 -0.23816574 0.59400004 55 126 184 255
0.001697143 -0.23816574 0.59400004 55 126 184 255
0.0028285717 -0.23816574 0.59400004 55 126 184 255
0.0039600004 -0.23816574 0.59400004 55 126 184 255
0.0051000006 -0.23856667 0.59500003 55 126 184 255
0.0062228576 -0.23816574 0.59400004 55 126 184 255
0.007354286 -0.23816574 0.59400004 55 126 184 255
0.0085000005 -0.23856667 0.59500003 55 126 184 255
0.0096495235 -0.23896761 0.59600002 55 126 184 255
0.051371429 -0.23255239 0.58000004 55 126 184 255
0.052295238 -0.23175047 0.57800001 55 126 184 255
0.053396191 -0.23175047 0.57800001 55 126 184 255
0.054591436 -0.23215145 0.57900006 55 126 184 255
0.05569429 -0.23215145 0.57900006 55 126 184 255
0.056895241 -0.23255239 0.58000004 55 126 184 255
0.058000006 -0.23255239 0.58000004 55 126 184 255
0.059104767 -0.23255239 0.58000004 55 126 184 255
0.060209528 -0.23255239 0.58000004 55 126 184 255
0.089645714 -0.23736382 0.59200001 55 126 184 255
0.090773337 -0.23736382 0.59200001 55 126 184 255
0.091900952 -0.23736382 0.59200001 55 126 184 255
0.093185723 -0.23776479 0.59300005 55 126 184 255
0.094315246 -0.23776479 0.59300005 55 126 184 255
0.095444769 -0.23776479 0.59300005 55 126 184 255
0.096574292 -0.23776479 0.59300005 55 126 184 255
0.097703822 -0.23776479 0.59300005 55 126 184 255
0.09866666 -0.23736382 0.59200001 55 126 184 255
0.099794291 -0.23736382 0.59200001 55 126 184 255
0.10092191 -0.23736382 0.59200001 55 126 184 255
0.10187715 -0.23696285 0.59100002 55 126 184 255
0.10300286 -0.23696285 0.59100002 55 126 184 255
0.10412858 -0.23696285 0.59100002 55 126 184 255
0.10525429 -0.23696285 0.59100002 55 126 184 255
0.10638 -0.23696285 0.59100002 55 126 184 255
0.10750572 -0.23696285 0.59100002 55 126 184 255
0.10881524 -0.23736382 0.59200001 55 126 184 255
0.10994286 -0.23736382 0.59200001 55 126 184 255
-0.009730476 -0.23982762 0.60100001 55 126 184 255
-0.0085571436 -0.23902954 0.59900004 55 126 184 255
-0.0073914286 -0.23823144 0.597 55 126 184 255
-0.0062333331 -0.23743334 0.59500003 55 126 184 255
-0.0050914288 -0.23703431 0.59400004 55 126 184 255
-0.0039533339 -0.23663525 0.59300005 55 126 184 255
-0.0028238096 -0.23663525 0.59300005 55 126 184 255
-0.0016942859 -0.23663525 0.59300005 55 126 184 255
-0.00056476193 -0.23663525 0.59300005 55 126 184 255
0.00056476193 -0.23663525 0.59300005 55 126 184 255
0.0016942859 -0.23663525 0.59300005 55 126 184 255
0.0028285717 -0.23703431 0.59400004 55 126 184 255
0.0039600004 -0.23703431 0.59400004 55 126 184 255
0.0050914288 -0.23703431 0.59400004 55 126 184 255
0.0062228576 -0.23703431 0.59400004 55 126 184 255
0.007354286 -0.23703431 0.59400004 55 126 184 255
0.0085000005 -0.23743334 0.59500003 55 126 184 255
0.0096333344 -0.23743334 0.59500003 55 126 184 255
0.010766666 -0.23743334 0.59500003 55 126 184 255
0.05078667 -0.23384191 0.58600003 55 126 184 255
0.051460002 -0.23184668 0.58100003 55 126 184 255
0.052385718 -0.2310486 0.57900006 55 126 184 255
0.053488575 -0.2310486 0.57900006 55 126 184 255
0.054591436 -0.2310486 0.57900006 55 126 184 255
0.05569429 -0.2310486 0.57900006 55 126 184 255
0.056895241 -0.23144764 0.58000004 55 126 184 255
0.058100004 -0.23184668 0.58100003 55 126 184 255
0.059104767 -0.23144764 0.58000004 55 126 184 255
0.060209528 -0.23144764 0.58000004 55 126 184 255
0.083865717 -0.23583715 0.59100002 55 126 184 255
0.084991433 -0.23583715 0.59100002 55 126 184 255
0.08597143 -0.23543809 0.59000003 55 126 184 255
0.08694762 -0.23503906 0.58900005 55 126 184 255
0.088069528 -0.23503906 0.58900005 55 126 184 255
0.089191437 -0.23503906 0.58900005 55 126 184 255
0.090620004 -0.23583715 0.59100002 55 126 184 255
0.091745712 -0.23583715 0.59100002 55 126 184 255
0.093185723 -0.23663525 0.59300005 55 126 184 255
0.094315246 -0.23663525 0.59300005 55 126 184 255
0.095444769 -0.23663525 0.59300005 55 126 184 255
0.096574292 -0.23663525 0.59300005 55 126 184 255
0.097539045 -0.23623618 0.59200001 55 126 184 255
0.09866666 -0.23623618 0.59200001 55 126 184 255
0.099625714 -0.23583715 0.59100002 55 126 184 255
0.10075143 -0.23583715 0.59100002 55 126 184 255
0.10187715 -0.23583715 0.59100002 55 126 184 255
0.10300286 -0.23583715 0.59100002 55 126 184 255
0.10412858 -0.23583715 0.59100002 55 126 184 255
0.10525429 -0.23583715 0.59100002 55 126 184 255
0.10638 -0.23583715 0.59100002 55 126 184 255
0.10750572 -0.23583715 0.59100002 55 126 184 255
0.10881524 -0.23623618 0.59200001 55 126 184 255
0.10994286 -0.23623618 0.59200001 55 126 184 255
-0.009730476 -0.23868287 0.60100001 55 126 184 255
-0.0085714282 -0.23828572 0.60000002 55 126 184 255
-0.0073914286 -0.23709428 0.597 55 126 184 255
-0.0062228576 -0.23590286 0.59400004 55 126 184 255
-0.0050742859 -0.23510857 0.59200001 55 126 184 255
-0.0039466666 -0.23510857 0.59200001 55 126 184 255
-0.0028190475 -0.23510857 0.59200001 55 126 184 255
-0.0016914286 -0.23510857 0.59200001 55 126 184 255
-0.00056380953 -0.23510857 0.59200001 55 126 184 255
0.00056380953 -0.23510857 0.59200001 55 126 184 255
0.0016914286 -0.23510857 0.59200001 55 126 184 255
0.0028238096 -0.23550573 0.59300005 55 126 184 255
0.0039533339 -0.23550573 0.59300005 55 126 184 255
0.0050914288 -0.23590286 0.59400004 55 126 184 255
0.0062228576 -0.23590286 0.59400004 55 126 184 255
0.007354286 -0.23590286 0.59400004 55 126 184 255
0.0085000005 -0.23630001 0.59500003 55 126 184 255
0.0096171433 -0.23590286 0.59400004 55 126 184 255
0.010748573 -0.23590286 0.59400004 55 126 184 255
0.05078667 -0.23272572 0.58600003 55 126 184 255
0.051637143 -0.23153429 0.583 55 126 184 255
0.052476194 -0.23034286 0.58000004 55 126 184 255
0.053580958 -0.23034286 0.58000004 55 126 184 255
0.054591436 -0.22994573 0.57900006 55 126 184 255
0.05569429 -0.22994573 0.57900006 55 126 184 255
0.056797147 -0.22994573 0.57900006 55 126 184 255
0.059000004 -0.23431429 0.59000003 55 126 184 255
0.060225718 -0.23471144 0.59100002 55 126 184 255
0.061351426 -0.23471144 0.59100002 55 126 184 255
0.062477149 -0.23471144 0.59100002 55 126 184 255
0.081752382 -0.23510857 0.59200001 55 126 184 255
0.082879998 -0.23510857 0.59200001 55 126 184 255
0.083865717 -0.23471144 0.59100002 55 126 184 255
0.084991433 -0.23471144 0.59100002 55 126 184 255
0.08597143 -0.23431429 0.59000003 55 126 184 255
0.08694762 -0.23391716 0.58900005 55 126 184 255
0.088069528 -0.23391716 0.58900005 55 126 184 255
0.089191437 -0.23391716 0.58900005 55 126 184 255
0.090620004 -0.23471144 0.59100002 55 126 184 255
0.091745712 -0.23471144 0.59100002 55 126 184 255
0.093185723 -0.23550573 0.59300005 55 126 184 255
0.094315246 -0.23550573 0.59300005 55 126 184 255
0.095444769 -0.23550573 0.59300005 55 126 184 255
0.096574292 -0.23550573 0.59300005 55 126 184 255
0.097539045 -0.23510857 0.59200001 55 126 184 255
0.098499998 -0.23471144 0.59100002 55 126 184 255
0.099625714 -0.23471144 0.59100002 55 126 184 255
0.10075143 -0.23471144 0.59100002 55 126 184 255
0.10187715 -0.23471144 0.59100002 55 126 184 255
0.10300286 -0.23471144 0.59100002 55 126 184 255
0.10412858 -0.23471144 0.59100002 55 126 184 255
0.10525429 -0.23471144 0.59100002 55 126 184 255
0.10638 -0.23471144 0.59100002 55 126 184 255
0.10750572 -0.23471144 0.59100002 55 126 184 255
0.10863143 -0.23471144 0.59100002 55 126 184 255
0.10975715 -0.23471144 0.59100002 55 126 184 255
-0.0085714282 -0.23714288 0.60000002 55 126 184 255
-0.007329524 -0.23398095 0.59200001 55 126 184 255
-0.0062019047 -0.23398095 0.59200001 55 126 184 255
-0.0050742859 -0.23398095 0.59200001 55 126 184 255
-0.0039466666 -0.23398095 0.59200001 55 126 184 255
-0.0028190475 -0.23398095 0.59200001 55 126 184 255
-0.0016914286 -0.23398095 0.59200001 55 126 184 255
-0.00056380953 -0.23398095 0.59200001 55 126 184 255
0.00056380953 -0.23398095 0.59200001 55 126 184 255
0.0016914286 -0.23398095 0.59200001 55 126 184 255
0.0028190475 -0.23398095 0.59200001 55 126 184 255
0.0039533339 -0.23437621 0.59300005 55 126 184 255
0.0050828573 -0.23437621 0.59300005 55 126 184 255
0.0062123816 -0.23437621 0.59300005 55 126 184 255
0.007341905 -0.23437621 0.59300005 55 126 184 255
0.0084857149 -0.23477143 0.59400004 55 126 184 255
0.0096171433 -0.23477143 0.59400004 55 126 184 255
0.010748573 -0.23477143 0.59400004 55 126 184 255
0.01182 -0.23358573 0.59100002 55 126 184 255
0.012945714 -0.23358573 0.59100002 55 126 184 255
0.015197143 -0.23358573 0.59100002 55 126 184 255
0.017478095 -0.23398095 0.59200001 55 126 184 255
0.047519047 -0.23200478 0.58700001 55 126 184 255
0.048637144 -0.23200478 0.58700001 55 126 184 255
0.049755238 -0.23200478 0.58700001 55 126 184 255
0.050873332 -0.23200478 0.58700001 55 126 184 255
0.051902857 -0.23160954 0.58600003 55 126 184 255
0.053019051 -0.23160954 0.58600003 55 126 184 255
0.05422762 -0.23200478 0.58700001 55 126 184 255
0.055345718 -0.23200478 0.58700001 55 126 184 255
0.056463812 -0.23200478 0.58700001 55 126 184 255
0.057581905 -0.23200478 0.58700001 55 126 184 255
0.059000004 -0.23319049 0.59000003 55 126 184 255
0.060123812 -0.23319049 0.59000003 55 126 184 255
0.061351426 -0.23358573 0.59100002 55 126 184 255
0.062371433 -0.23319049 0.59000003 55 126 184 255
0.063495241 -0.23319049 0.59000003 55 126 184 255
0.064619049 -0.23319049 0.59000003 55 126 184 255
0.081752382 -0.23398095 0.59200001 55 126 184 255
0.082879998 -0.23398095 0.59200001 55 126 184 255
0.083865717 -0.23358573 0.59100002 55 126 184 255
0.084991433 -0.23358573 0.59100002 55 126 184 255
0.08597143 -0.23319049 0.59000003 55 126 184 255
0.08694762 -0.23279525 0.58900005 55 126 184 255
0.088069528 -0.23279525 0.58900005 55 126 184 255
0.089342862 -0.23319049 0.59000003 55 126 184 255
0.090620004 -0.23358573 0.59100002 55 126 184 255
0.091745712 -0.23358573 0.59100002 55 126 184 255
0.093185723 -0.23437621 0.59300005 55 126 184 255
0.094315246 -0.23437621 0.59300005 55 126 184 255
0.095444769 -0.23437621 0.59300005 55 126 184 255
0.096574292 -0.23437621 0.59300005 55 126 184 255
0.097539045 -0.23398095 0.59200001 55 126 184 255
0.098499998 -0.23358573 0.59100002 55 126 184 255
0.099625714 -0.23358573 0.59100002 55 126 184 255
0.10075143 -0.23358573 0.59100002 55 126 184 255
0.10187715 -0.23358573 0.59100002 55 126 184 255
0.10300286 -0.23358573 0.59100002 55 126 184 255
0.10412858 -0.23358573 0.59100002 55 126 184 255
0.10525429 -0.23358573 0.59100002 55 126 184 255
0.10638 -0.23358573 0.59100002 55 126 184 255
0.10750572 -0.23358573 0.59100002 55 126 184 255
0.10863143 -0.23358573 0.59100002 55 126 184 255
0.10975715 -0.23358573 0.59100002 55 126 184 255
-0.007317143 -0.23246001 0.59100002 55 126 184 255
-0.0061914288 -0.23246001 0.59100002 55 126 184 255
-0.0050742859 -0.23285334 0.59200001 55 126 184 255
-0.0039466666 -0.23285334 0.59200001 55 126 184 255
-0.0028190475 -0.23285334 0.59200001 55 126 184 255
-0.0016914286 -0.23285334 0.59200001 55 126 184 255
-0.00056285714 -0.23246001 0.59100002 55 126 184 255
0.00056285714 -0.23246001 0.59100002 55 126 184 255
0.0016914286 -0.23285334 0.59200001 55 126 184 255
0.0028190475 -0.23285334 0.59200001 55 126 184 255
0.0039466666 -0.23285334 0.59200001 55 126 184 255
0.0050742859 -0.23285334 0.59200001 55 126 184 255
0.0062019047 -0.23285334 0.59200001 55 126 184 255
0.007329524 -0.23285334 0.59200001 55 126 184 255
0.0084571429 -0.23285334 0.59200001 55 126 184 255
0.0095847622 -0.23285334 0.59200001 55 126 184 255
0.010712381 -0.23285334 0.59200001 55 126 184 255
0.01182 -0.23246001 0.59100002 55 126 184 255
0.012945714 -0.23246001 0.59100002 55 126 184 255
0.014071429 -0.23246001 0.59100002 55 126 184 255
0.015197143 -0.23246001 0.59100002 55 126 184 255
0.016350476 -0.23285334 0.59200001 55 126 184 255
0.017478095 -0.23285334 0.59200001 55 126 184 255
0.018605713 -0.23285334 0.59200001 55 126 184 255
0.027626665 -0.23285334 0.59200001 55 126 184 255
0.028754286 -0.23285334 0.59200001 55 126 184 255
0.029881904 -0.23285334 0.59200001 55 126 184 255
0.031009525 -0.23285334 0.59200001 55 126 184 255
0.032137141 -0.23285334 0.59200001 55 126 184 255
0.033208571 -0.23246001 0.59100002 55 126 184 255
0.034334287 -0.23246001 0.59100002 55 126 184 255
0.035400003 -0.23206668 0.59000003 55 126 184 255
0.036461908 -0.23167334 0.58900005 55 126 184 255
0.037583809 -0.23167334 0.58900005 55 126 184 255
0.038705718 -0.23167334 0.58900005 55 126 184 255
0.039760001 -0.23128 0.588 55 126 184 255
0.040879998 -0.23128 0.588 55 126 184 255
0.042071432 -0.23167334 0.58900005 55 126 184 255
0.043120001 -0.23128 0.588 55 126 184 255
0.044239998 -0.23128 0.588 55 126 184 255
0.04648 -0.23128 0.588 55 126 184 255
0.047519047 -0.23088667 0.58700001 55 126 184 255
0.048637144 -0.23088667 0.58700001 55 126 184 255
0.049755238 -0.23088667 0.58700001 55 126 184 255
0.050873332 -0.23088667 0.58700001 55 126 184 255
0.051902857 -0.23049334 0.58600003 55 126 184 255
0.053019051 -0.23049334 0.58600003 55 126 184 255
0.05422762 -0.23088667 0.58700001 55 126 184 255
0.055345718 -0.23088667 0.58700001 55 126 184 255
0.056463812 -0.23088667 0.58700001 55 126 184 255
0.057581905 -0.23088667 0.58700001 55 126 184 255
0.059000004 -0.23206668 0.59000003 55 126 184 255
0.060123812 -0.23206668 0.59000003 55 126 184 255
0.061351426 -0.23246001 0.59100002 55 126 184 255
0.062371433 -0.23206668 0.59000003 55 126 184 255
0.063495241 -0.23206668 0.59000003 55 126 184 255
0.064619049 -0.23206668 0.59000003 55 126 184 255
0.069348574 -0.23285334 0.59200001 55 126 184 255
0.070476189 -0.23285334 0.59200001 55 126 184 255
0.071603805 -0.23285334 0.59200001 55 126 184 255
0.072731428 -0.23285334 0.59200001 55 126 184 255
0.073859051 -0.23285334 0.59200001 55 126 184 255
0.075113341 -0.23324668 0.59300005 55 126 184 255
0.076242864 -0.23324668 0.59300005 55 126 184 255
0.077372387 -0.23324668 0.59300005 55 126 184 255
0.07850191 -0.23324668 0.59300005 55 126 184 255
0.079631433 -0.23324668 0.59300005 55 126 184 255
0.080624759 -0.23285334 0.59200001 55 126 184 255
0.081752382 -0.23285334 0.59200001 55 126 184 255
0.082740009 -0.23246001 0.59100002 55 126 184 255
0.083865717 -0.23246001 0.59100002 55 126 184 255
0.084991433 -0.23246001 0.59100002 55 126 184 255
0.086117148 -0.23246001 0.59100002 55 126 184 255
0.087095238 -0.23206668 0.59000003 55 126 184 255
0.088219054 -0.23206668 0.59000003 55 126 184 255
0.089494288 -0.23246001 0.59100002 55 126 184 255
0.090620004 -0.23246001 0.59100002 55 126 184 255
0.091745712 -0.23246001 0.59100002 55 126 184 255
0.093028568 -0.23285334 0.59200001 55 126 184 255
0.094156191 -0.23285334 0.59200001 55 126 184 255
0.095283814 -0.23285334 0.59200001 55 126 184 255
0.096411429 -0.23285334 0.59200001 55 126 184 255
0.097539045 -0.23285334 0.59200001 55 126 184 255
0.098499998 -0.23246001 0.59100002 55 126 184 255
0.099625714 -0.23246001 0.59100002 55 126 184 255
0.10075143 -0.23246001 0.59100002 55 126 184 255
0.10170477 -0.23206668 0.59000003 55 126 184 255
0.10282858 -0.23206668 0.59000003 55 126 184 255
0.10395239 -0.23206668 0.59000003 55 126 184 255
0.10525429 -0.23246001 0.59100002 55 126 184 255
0.10638 -0.23246001 0.59100002 55 126 184 255
0.10750572 -0.23246001 0.59100002 55 126 184 255
0.10863143 -0.23246001 0.59100002 55 126 184 255
0.10975715 -0.23246001 0.59100002 55 126 184 255
-0.007317143 -0.23133428 0.59100002 55 126 184 255
-0.0061914288 -0.23133428 0.59100002 55 126 184 255
-0.0050657145 -0.23133428 0.59100002 55 126 184 255
-0.0039400002 -0.23133428 0.59100002 55 126 184 255
-0.0028142859 -0.23133428 0.59100002 55 126 184 255
-0.0016885714 -0.23133428 0.59100002 55 126 184 255
-0.00056285714 -0.23133428 0.59100002 55 126 184 255
0.00056285714 -0.23133428 0.59100002 55 126 184 255
0.0016885714 -0.23133428 0.59100002 55 126 184 255
0.0028190475 -0.23172571 0.59200001 55 126 184 255
0.0039466666 -0.23172571 0.59200001 55 126 184 255
0.0050742859 -0.23172571 0.59200001 55 126 184 255
0.0062019047 -0.23172571 0.59200001 55 126 184 255
0.007317143 -0.23133428 0.59100002 55 126 184 255
0.0084428573 -0.23133428 0.59100002 55 126 184 255
0.0095847622 -0.23172571 0.59200001 55 126 184 255
0.010712381 -0.23172571 0.59200001 55 126 184 255
0.01182 -0.23133428 0.59100002 55 126 184 255
0.012945714 -0.23133428 0.59100002 55 126 184 255
0.014071429 -0.23133428 0.59100002 55 126 184 255
0.015197143 -0.23133428 0.59100002 55 126 184 255
0.016322857 -0.23133428 0.59100002 55 126 184 255
0.017448572 -0.23133428 0.59100002 55 126 184 255
0.018574286 -0.23133428 0.59100002 55 126 184 255
0.019700002 -0.23133428 0.59100002 55 126 184 255
0.020825714 -0.23133428 0.59100002 55 126 184 255
0.02195143 -0.23133428 0.59100002 55 126 184 255
0.023077143 -0.23133428 0.59100002 55 126 184 255
0.024202857 -0.23133428 0.59100002 55 126 184 255
0.025371429 -0.23172571 0.59200001 55 126 184 255
0.026499048 -0.23172571 0.59200001 55 126 184 255
0.027626665 -0.23172571 0.59200001 55 126 184 255
0.028754286 -0.23172571 0.59200001 55 126 184 255
0.029881904 -0.23172571 0.59200001 55 126 184 255
0.031009525 -0.23172571 0.59200001 55 126 184 255
0.032082856 -0.23133428 0.59100002 55 126 184 255
0.033208571 -0.23133428 0.59100002 55 126 184 255
0.034276191 -0.23094288 0.59000003 55 126 184 255
0.035400003 -0.23094288 0.59000003 55 126 184 255
0.036461908 -0.23055145 0.58900005 55 126 184 255
0.037583809 -0.23055145 0.58900005 55 126 184 255
0.038705718 -0.23055145 0.58900005 55 126 184 255
0.039760001 -0.23016 0.588 55 126 184 255
0.040879998 -0.23016 0.588 55 126 184 255
0.042071432 -0.23055145 0.58900005 55 126 184 255
0.043120001 -0.23016 0.588 55 126 184 255
0.044239998 -0.23016 0.588 55 126 184 255
0.045514286 -0.23094288 0.59000003 55 126 184 255
0.04648 -0.23016 0.588 55 126 184 255
0.047599997 -0.23016 0.588 55 126 184 255
0.048719998 -0.23016 0.588 55 126 184 255
0.04984 -0.23016 0.588 55 126 184 255
0.050960001 -0.23016 0.588 55 126 184 255
0.051991429 -0.22976857 0.58700001 55 126 184 255
0.053109523 -0.22976857 0.58700001 55 126 184 255
0.05422762 -0.22976857 0.58700001 55 126 184 255
0.055345718 -0.22976857 0.58700001 55 126 184 255
0.056463812 -0.22976857 0.58700001 55 126 184 255
0.05768 -0.23016 0.588 55 126 184 255
0.059099998 -0.23133428 0.59100002 55 126 184 255
0.060225718 -0.23133428 0.59100002 55 126 184 255
0.061351426 -0.23133428 0.59100002 55 126 184 255
0.062477149 -0.23133428 0.59100002 55 126 184 255
0.063602857 -0.23133428 0.59100002 55 126 184 255
0.064728573 -0.23133428 0.59100002 55 126 184 255
0.065854289 -0.23133428 0.59100002 55 126 184 255
0.066980004 -0.23133428 0.59100002 55 126 184 255
0.068105713 -0.23133428 0.59100002 55 126 184 255
0.069348574 -0.23172571 0.59200001 55 126 184 255
0.070476189 -0.23172571 0.59200001 55 126 184 255
0.071603805 -0.23172571 0.59200001 55 126 184 255
0.072731428 -0.23172571 0.59200001 55 126 184 255
0.073859051 -0.23172571 0.59200001 55 126 184 255
0.074986666 -0.23172571 0.59200001 55 126 184 255
0.076114282 -0.23172571 0.59200001 55 126 184 255
0.077241905 -0.23172571 0.59200001 55 126 184 255
0.078369528 -0.23172571 0.59200001 55 126 184 255
0.079631433 -0.23211716 0.59300005 55 126 184 255
0.080624759 -0.23172571 0.59200001 55 126 184 255
0.081752382 -0.23172571 0.59200001 55 126 184 255
0.082740009 -0.23133428 0.59100002 55 126 184 255
0.083865717 -0.23133428 0.59100002 55 126 184 255
0.084991433 -0.23133428 0.59100002 55 126 184 255
0.086117148 -0.23133428 0.59100002 55 126 184 255
0.087242857 -0.23133428 0.59100002 55 126 184 255
0.088368572 -0.23133428 0.59100002 55 126 184 255
0.089494288 -0.23133428 0.59100002 55 126 184 255
0.090620004 -0.23133428 0.59100002 55 126 184 255
0.091745712 -0.23133428 0.59100002 55 126 184 255
0.092871435 -0.23133428 0.59100002 55 126 184 255
0.093997151 -0.23133428 0.59100002 55 126 184 255
0.095122859 -0.23133428 0.59100002 55 126 184 255
0.096248575 -0.23133428 0.59100002 55 126 184 255
0.097539045 -0.23172571 0.59200001 55 126 184 255
0.098499998 -0.23133428 0.59100002 55 126 184 255
0.099625714 -0.23133428 0.59100002 55 126 184 255
0.10075143 -0.23133428 0.59100002 55 126 184 255
0.10170477 -0.23094288 0.59000003 55 126 184 255
0.10282858 -0.23094288 0.59000003 55 126 184 255
0.10395239 -0.23094288 0.59000003 55 126 184 255
0.10525429 -0.23133428 0.59100002 55 126 184 255
0.10638 -0.23133428 0.59100002 55 126 184 255
0.10750572 -0.23133428 0.59100002 55 126 184 255
0.10863143 -0.23133428 0.59100002 55 126 184 255
0.10975715 -0.23133428 0.59100002 55 126 184 255
-0.007317143 -0.23020858 0.59100002 55 126 184 255
-0.0061914288 -0.23020858 0.59100002 55 126 184 255
-0.0050657145 -0.23020858 0.59100002 55 126 184 255
-0.0039400002 -0.23020858 0.59100002 55 126 184 255
-0.0028142859 -0.23020858 0.59100002 55 126 184 255
-0.0016885714 -0.23020858 0.59100002 55 126 184 255
-0.00056285714 -0.23020858 0.59100002 55 126 184 255
0.00056285714 -0.23020858 0.59100002 55 126 184 255
0.0016885714 -0.23020858 0.59100002 55 126 184 255
0.0028142859 -0.23020858 0.59100002 55 126 184 255
0.0039400002 -0.23020858 0.59100002 55 126 184 255
0.0050657145 -0.23020858 0.59100002 55 126 184 255
0.0061914288 -0.23020858 0.59100002 55 126 184 255
0.007317143 -0.23020858 0.59100002 55 126 184 255
0.0084428573 -0.23020858 0.59100002 55 126 184 255
0.0095847622 -0.23059809 0.59200001 55 126 184 255
0.010694286 -0.23020858 0.59100002 55 126 184 255
0.01182 -0.23020858 0.59100002 55 126 184 255
0.012945714 -0.23020858 0.59100002 55 126 184 255
0.014071429 -0.23020858 0.59100002 55 126 184 255
0.015197143 -0.23020858 0.59100002 55 126 184 255
0.016322857 -0.23020858 0.59100002 55 126 184 255
0.017419048 -0.22981906 0.59000003 55 126 184 255
0.018542858 -0.22981906 0.59000003 55 126 184 255
0.019666668 -0.22981906 0.59000003 55 126 184 255
0.020825714 -0.23020858 0.59100002 55 126 184 255
0.02195143 -0.23020858 0.59100002 55 126 184 255
0.023077143 -0.23020858 0.59100002 55 126 184 255
0.024202857 -0.23020858 0.59100002 55 126 184 255
0.025328573 -0.23020858 0.59100002 55 126 184 255
0.026454287 -0.23020858 0.59100002 55 126 184 255
0.027626665 -0.23059809 0.59200001 55 126 184 255
0.028754286 -0.23059809 0.59200001 55 126 184 255
0.029881904 -0.23059809 0.59200001 55 126 184 255
0.031009525 -0.23059809 0.59200001 55 126 184 255
0.032082856 -0.23020858 0.59100002 55 126 184 255
0.033208571 -0.23020858 0.59100002 55 126 184 255
0.034276191 -0.22981906 0.59000003 55 126 184 255
0.035400003 -0.22981906 0.59000003 55 126 184 255
0.036523812 -0.22981906 0.59000003 55 126 184 255
0.03764762 -0.22981906 0.59000003 55 126 184 255
0.038705718 -0.22942954 0.58900005 55 126 184 255
0.039827622 -0.22942954 0.58900005 55 126 184 255
0.040949523 -0.22942954 0.58900005 55 126 184 255
0.042142861 -0.22981906 0.59000003 55 126 184 255
0.043266669 -0.22981906 0.59000003 55 126 184 255
0.044390481 -0.22981906 0.59000003 55 126 184 255
0.045514286 -0.22981906 0.59000003 55 126 184 255
0.046638098 -0.22981906 0.59000003 55 126 184 255
0.047761906 -0.22981906 0.59000003 55 126 184 255
0.048885714 -0.22981906 0.59000003 55 126 184 255
0.050009526 -0.22981906 0.59000003 55 126 184 255
0.051133335 -0.22981906 0.59000003 55 126 184 255
0.052079998 -0.22904 0.588 55 126 184 255
0.053199999 -0.22904 0.588 55 126 184 255
0.05432 -0.22904 0.588 55 126 184 255
0.055440001 -0.22904 0.588 55 126 184 255
0.056848574 -0.23020858 0.59100002 55 126 184 255
0.057974286 -0.23020858 0.59100002 55 126 184 255
0.059099998 -0.23020858 0.59100002 55 126 184 255
0.060225718 -0.23020858 0.59100002 55 126 184 255
0.061351426 -0.23020858 0.59100002 55 126 184 255
0.062477149 -0.23020858 0.59100002 55 126 184 255
0.063602857 -0.23020858 0.59100002 55 126 184 255
0.064728573 -0.23020858 0.59100002 55 126 184 255
0.065854289 -0.23020858 0.59100002 55 126 184 255
0.066980004 -0.23020858 0.59100002 55 126 184 255
0.068105713 -0.23020858 0.59100002 55 126 184 255
0.069231428 -0.23020858 0.59100002 55 126 184 255
0.070357144 -0.23020858 0.59100002 55 126 184 255
0.071603805 -0.23059809 0.59200001 55 126 184 255
0.072731428 -0.23059809 0.59200001 55 126 184 255
0.073859051 -0.23059809 0.59200001 55 126 184 255
0.074986666 -0.23059809 0.59200001 55 126 184 255
0.076114282 -0.23059809 0.59200001 55 126 184 255
0.077241905 -0.23059809 0.59200001 55 126 184 255
0.078369528 -0.23059809 0.59200001 55 126 184 255
0.079497144 -0.23059809 0.59200001 55 126 184 255
0.080624759 -0.23059809 0.59200001 55 126 184 255
0.081752382 -0.23059809 0.59200001 55 126 184 255
0.082740009 -0.23020858 0.59100002 55 126 184 255
0.083865717 -0.23020858 0.59100002 55 126 184 255
0.084991433 -0.23020858 0.59100002 55 126 184 255
0.086117148 -0.23020858 0.59100002 55 126 184 255
0.087242857 -0.23020858 0.59100002 55 126 184 255
0.088368572 -0.23020858 0.59100002 55 126 184 255
0.089494288 -0.23020858 0.59100002 55 126 184 255
0.090620004 -0.23020858 0.59100002 55 126 184 255
0.091745712 -0.23020858 0.59100002 55 126 184 255
0.092871435 -0.23020858 0.59100002 55 126 184 255
0.093997151 -0.23020858 0.59100002 55 126 184 255
0.095122859 -0.23020858 0.59100002 55 126 184 255
0.096248575 -0.23020858 0.59100002 55 126 184 255
0.09737429 -0.23020858 0.59100002 55 126 184 255
0.098499998 -0.23020858 0.59100002 55 126 184 255
0.099625714 -0.23020858 0.59100002 55 126 184 255
0.10075143 -0.23020858 0.59100002 55 126 184 255
0.10187715 -0.23020858 0.59100002 55 126 184 255
0.10300286 -0.23020858 0.59100002 55 126 184 255
0.10412858 -0.23020858 0.59100002 55 126 184 255
0.10525429 -0.23020858 0.59100002 55 126 184 255
0.10638 -0.23020858 0.59100002 55 126 184 255
0.10750572 -0.23020858 0.59100002 55 126 184 255
0.10863143 -0.23020858 0.59100002 55 126 184 255
0.10975715 -0.23020858 0.59100002 55 126 184 255
0.1112581 -0.23098764 0.59300005 55 126 184 255
-0.007317143 -0.22908285 0.59100002 55 126 184 255
-0.0061914288 -0.22908285 0.59100002 55 126 184 255
-0.0050657145 -0.22908285 0.59100002 55 126 184 255
-0.0039400002 -0.22908285 0.59100002 55 126 184 255
-0.0028142859 -0.22908285 0.59100002 55 126 184 255
-0.0016885714 -0.22908285 0.59100002 55 126 184 255
-0.00056285714 -0.22908285 0.59100002 55 126 184 255
0.00056285714 -0.22908285 0.59100002 55 126 184 255
0.0016885714 -0.22908285 0.59100002 55 126 184 255
0.0028142859 -0.22908285 0.59100002 55 126 184 255
0.0039400002 -0.22908285 0.59100002 55 126 184 255
0.0050657145 -0.22908285 0.59100002 55 126 184 255
0.0061914288 -0.22908285 0.59100002 55 126 184 255
0.007317143 -0.22908285 0.59100002 55 126 184 255
0.0084428573 -0.22908285 0.59100002 55 126 184 255
0.0095847622 -0.22947048 0.59200001 55 126 184 255
0.010694286 -0.22908285 0.59100002 55 126 184 255
0.01182 -0.22908285 0.59100002 55 126 184 255
0.012945714 -0.22908285 0.59100002 55 126 184 255
0.014071429 -0.22908285 0.59100002 55 126 184 255
0.015197143 -0.22908285 0.59100002 55 126 184 255
0.016322857 -0.22908285 0.59100002 55 126 184 255
0.017419048 -0.22869526 0.59000003 55 126 184 255
0.018542858 -0.22869526 0.59000003 55 126 184 255
0.019666668 -0.22869526 0.59000003 55 126 184 255
0.020825714 -0.22908285 0.59100002 55 126 184 255
0.02195143 -0.22908285 0.59100002 55 126 184 255
0.023077143 -0.22908285 0.59100002 55 126 184 255
0.024202857 -0.22908285 0.59100002 55 126 184 255
0.025328573 -0.22908285 0.59100002 55 126 184 255
0.026454287 -0.22908285 0.59100002 55 126 184 255
0.027626665 -0.22947048 0.59200001 55 126 184 255
0.028705714 -0.22908285 0.59100002 55 126 184 255
0.02983143 -0.22908285 0.59100002 55 126 184 255
0.030957144 -0.22908285 0.59100002 55 126 184 255
0.032082856 -0.22908285 0.59100002 55 126 184 255
0.033208571 -0.22908285 0.59100002 55 126 184 255
0.034334287 -0.22908285 0.59100002 55 126 184 255
0.035460003 -0.22908285 0.59100002 55 126 184 255
0.036585715 -0.22908285 0.59100002 55 126 184 255
0.037711427 -0.22908285 0.59100002 55 126 184 255
0.038771432 -0.22869526 0.59000003 55 126 184 255
0.03989524 -0.22869526 0.59000003 55 126 184 255
0.041019052 -0.22869526 0.59000003 55 126 184 255
0.042214286 -0.22908285 0.59100002 55 126 184 255
0.043340001 -0.22908285 0.59100002 55 126 184 255
0.044465717 -0.22908285 0.59100002 55 126 184 255
0.045591429 -0.22908285 0.59100002 55 126 184 255
0.046717145 -0.22908285 0.59100002 55 126 184 255
0.047842856 -0.22908285 0.59100002 55 126 184 255
0.048968576 -0.22908285 0.59100002 55 126 184 255
0.050094288 -0.22908285 0.59100002 55 126 184 255
0.05122 -0.22908285 0.59100002 55 126 184 255
0.052345715 -0.22908285 0.59100002 55 126 184 255
0.053471427 -0.22908285 0.59100002 55 126 184 255
0.054597147 -0.22908285 0.59100002 55 126 184 255
0.055722859 -0.22908285 0.59100002 55 126 184 255
0.056848574 -0.22908285 0.59100002 55 126 184 255
0.058072381 -0.22947048 0.59200001 55 126 184 255
0.0592 -0.22947048 0.59200001 55 126 184 255
0.060327619 -0.22947048 0.59200001 55 126 184 255
0.061455239 -0.22947048 0.59200001 55 126 184 255
0.062477149 -0.22908285 0.59100002 55 126 184 255
0.063602857 -0.22908285 0.59100002 55 126 184 255
0.064728573 -0.22908285 0.59100002 55 126 184 255
0.065854289 -0.22908285 0.59100002 55 126 184 255
0.066980004 -0.22908285 0.59100002 55 126 184 255
0.068105713 -0.22908285 0.59100002 55 126 184 255
0.069231428 -0.22908285 0.59100002 55 126 184 255
0.070357144 -0.22908285 0.59100002 55 126 184 255
0.071603805 -0.22947048 0.59200001 55 126 184 255
0.072731428 -0.22947048 0.59200001 55 126 184 255
0.073859051 -0.22947048 0.59200001 55 126 184 255
0.074986666 -0.22947048 0.59200001 55 126 184 255
0.076114282 -0.22947048 0.59200001 55 126 184 255
0.077241905 -0.22947048 0.59200001 55 126 184 255
0.078369528 -0.22947048 0.59200001 55 126 184 255
0.079497144 -0.22947048 0.59200001 55 126 184 255
0.080624759 -0.22947048 0.59200001 55 126 184 255
0.081614286 -0.22908285 0.59100002 55 126 184 255
0.082740009 -0.22908285 0.59100002 55 126 184 255
0.083865717 -0.22908285 0.59100002 55 126 184 255
0.084991433 -0.22908285 0.59100002 55 126 184 255
0.086117148 -0.22908285 0.59100002 55 126 184 255
0.087242857 -0.22908285 0.59100002 55 126 184 255
0.088368572 -0.22908285 0.59100002 55 126 184 255
0.089494288 -0.22908285 0.59100002 55 126 184 255
0.090466671 -0.22869526 0.59000003 55 126 184 255
0.091590479 -0.22869526 0.59000003 55 126 184 255
0.092871435 -0.22908285 0.59100002 55 126 184 255
0.093838103 -0.22869526 0.59000003 55 126 184 255
0.094961911 -0.22869526 0.59000003 55 126 184 255
0.096248575 -0.22908285 0.59100002 55 126 184 255
0.09737429 -0.22908285 0.59100002 55 126 184 255
0.098499998 -0.22908285 0.59100002 55 126 184 255
0.099625714 -0.22908285 0.59100002 55 126 184 255
0.10075143 -0.22908285 0.59100002 55 126 184 255
0.10187715 -0.22908285 0.59100002 55 126 184 255
0.10282858 -0.22869526 0.59000003 55 126 184 255
0.10395239 -0.22869526 0.59000003 55 126 184 255
0.1050762 -0.22869526 0.59000003 55 126 184 255
0.10620001 -0.22869526 0.59000003 55 126 184 255
0.10750572 -0.22908285 0.59100002 55 126 184 255
0.10863143 -0.22908285 0.59100002 55 126 184 255
0.10975715 -0.22908285 0.59100002 55 126 184 255
0.1112581 -0.22985812 0.59300005 55 126 184 255
-0.007329524 -0.22834286 0.59200001 55 126 184 255
-0.0061914288 -0.22795714 0.59100002 55 126 184 255
-0.0050657145 -0.22795714 0.59100002 55 126 184 255
-0.0039400002 -0.22795714 0.59100002 55 126 184 255
-0.0028142859 -0.22795714 0.59100002 55 126 184 255
-0.0016885714 -0.22795714 0.59100002 55 126 184 255
-0.00056285714 -0.22795714 0.59100002 55 126 184 255
0.00056285714 -0.22795714 0.59100002 55 126 184 255
0.0016885714 -0.22795714 0.59100002 55 126 184 255
0.0028142859 -0.22795714 0.59100002 55 126 184 255
0.0039400002 -0.22795714 0.59100002 55 126 184 255
0.0050657145 -0.22795714 0.59100002 55 126 184 255
0.0061914288 -0.22795714 0.59100002 55 126 184 255
0.007317143 -0.22795714 0.59100002 55 126 184 255
0.0084428573 -0.22795714 0.59100002 55 126 184 255
0.0095847622 -0.22834286 0.59200001 55 126 184 255
0.010694286 -0.22795714 0.59100002 55 126 184 255
0.01182 -0.22795714 0.59100002 55 126 184 255
0.012945714 -0.22795714 0.59100002 55 126 184 255
0.014071429 -0.22795714 0.59100002 55 126 184 255
0.015197143 -0.22795714 0.59100002 55 126 184 255
0.016322857 -0.22795714 0.59100002 55 126 184 255
0.017419048 -0.22757144 0.59000003 55 126 184 255
0.018542858 -0.22757144 0.59000003 55 126 184 255
0.019666668 -0.22757144 0.59000003 55 126 184 255
0.020825714 -0.22795714 0.59100002 55 126 184 255
0.02195143 -0.22795714 0.59100002 55 126 184 255
0.02311619 -0.22834286 0.59200001 55 126 184 255
0.024202857 -0.22795714 0.59100002 55 126 184 255
