ply
format ascii 1.0
comment PCL generated
element vertex 920
property float x
property float y
property float z
property uchar red
property uchar green
property uchar blue
property uchar alpha
element camera 1
property float view_px
property float view_py
property float view_pz
property float x_axisx
property float x_axisy
property float x_axisz
property float y_axisx
property float y_axisy
property float y_axisz
property float z_axisx
property float z_axisy
property float z_axisz
property float focal
property float scalex
property float scaley
property float centerx
property float centery
property int viewportx
property int viewporty
property float k1
property float k2
end_header
-0.042825714 -0.24267904 1.153 0 0 255 255
-0.040629521 -0.24267904 1.153 0 0 255 255
-0.038433332 -0.24267904 1.153 0 0 255 255
-0.036237143 -0.24267904 1.153 0 0 255 255
-0.033922859 -0.24183716 1.149 0 0 255 255
-0.031734288 -0.24183716 1.149 0 0 255 255
-0.042825714 -0.24048285 1.153 0 0 255 255
-0.040629521 -0.24048285 1.153 0 0 255 255
-0.038433332 -0.24048285 1.153 0 0 255 255
-0.036237143 -0.24048285 1.153 0 0 255 255
-0.033922859 -0.23964858 1.149 0 0 255 255
-0.031734288 -0.23964858 1.149 0 0 255 255
-0.029648572 -0.24048285 1.153 0 0 255 255
-0.042974286 -0.23911335 1.1570001 0 0 255 255
-0.040770479 -0.23911335 1.1570001 0 0 255 255
-0.038566668 -0.23911335 1.1570001 0 0 255 255
-0.036237143 -0.23828667 1.153 0 0 255 255
-0.03404095 -0.23828667 1.153 0 0 255 255
-0.031844761 -0.23828667 1.153 0 0 255 255
-0.029648572 -0.23828667 1.153 0 0 255 255
-0.027452381 -0.23828667 1.153 0 0 255 255
-0.043122858 -0.23772858 1.161 0 0 255 255
-0.040911429 -0.23772858 1.161 0 0 255 255
-0.038700003 -0.23772858 1.161 0 0 255 255
-0.03648857 -0.23772858 1.161 0 0 255 255
-0.034159049 -0.23690954 1.1570001 0 0 255 255
-0.031955238 -0.23690954 1.1570001 0 0 255 255
-0.029648572 -0.23609048 1.153 0 0 255 255
-0.027452381 -0.23609048 1.153 0 0 255 255
-0.025256189 -0.23609048 1.153 0 0 255 255
-0.04327143 -0.23632859 1.1650001 0 0 255 255
-0.040911429 -0.23551714 1.161 0 0 255 255
-0.038700003 -0.23551714 1.161 0 0 255 255
-0.03648857 -0.23551714 1.161 0 0 255 255
-0.034159049 -0.23470572 1.1570001 0 0 255 255
-0.031955238 -0.23470572 1.1570001 0 0 255 255
-0.029648572 -0.23389429 1.153 0 0 255 255
-0.027357142 -0.23308288 1.149 0 0 255 255
-0.025168573 -0.23308288 1.149 0 0 255 255
-0.022980001 -0.23308288 1.149 0 0 255 255
-0.040911429 -0.23330572 1.161 0 0 255 255
-0.038700003 -0.23330572 1.161 0 0 255 255
-0.03648857 -0.23330572 1.161 0 0 255 255
-0.034159049 -0.23250191 1.1570001 0 0 255 255
-0.031955238 -0.23250191 1.1570001 0 0 255 255
-0.029648572 -0.2316981 1.153 0 0 255 255
-0.027357142 -0.2308943 1.149 0 0 255 255
-0.025168573 -0.2308943 1.149 0 0 255 255
-0.022980001 -0.2308943 1.149 0 0 255 255
-0.031955238 -0.23029812 1.1570001 0 0 255 255
-0.029648572 -0.2295019 1.153 0 0 255 255
-0.027452381 -0.2295019 1.153 0 0 255 255
-0.025256189 -0.2295019 1.153 0 0 255 255
-0.02306 -0.2295019 1.153 0 0 255 255
-0.020863809 -0.2295019 1.153 0 0 255 255
-0.018667618 -0.2295019 1.153 0 0 255 255
-0.031844761 -0.22730571 1.153 0 0 255 255
-0.029545715 -0.22651716 1.149 0 0 255 255
-0.027357142 -0.22651716 1.149 0 0 255 255
-0.025168573 -0.22651716 1.149 0 0 255 255
-0.022980001 -0.22651716 1.149 0 0 255 255
-0.02079143 -0.22651716 1.149 0 0 255 255
-0.018667618 -0.22730571 1.153 0 0 255 255
-0.016471429 -0.22730571 1.153 0 0 255 255
-0.014275238 -0.22730571 1.153 0 0 255 255
-0.03404095 -0.22510953 1.153 0 0 255 255
-0.031844761 -0.22510953 1.153 0 0 255 255
-0.029545715 -0.22432858 1.149 0 0 255 255
-0.027357142 -0.22432858 1.149 0 0 255 255
-0.025168573 -0.22432858 1.149 0 0 255 255
-0.022980001 -0.22432858 1.149 0 0 255 255
-0.02079143 -0.22432858 1.149 0 0 255 255
-0.018602857 -0.22432858 1.149 0 0 255 255
-0.016471429 -0.22510953 1.153 0 0 255 255
-0.014275238 -0.22510953 1.153 0 0 255 255
-0.040770479 -0.22368668 1.1570001 0 0 255 255
-0.038433332 -0.22291334 1.153 0 0 255 255
-0.036237143 -0.22291334 1.153 0 0 255 255
-0.033922859 -0.22214 1.149 0 0 255 255
-0.031734288 -0.22214 1.149 0 0 255 255
-0.029545715 -0.22214 1.149 0 0 255 255
-0.027357142 -0.22214 1.149 0 0 255 255
-0.025168573 -0.22214 1.149 0 0 255 255
-0.022980001 -0.22214 1.149 0 0 255 255
-0.02079143 -0.22214 1.149 0 0 255 255
-0.018602857 -0.22214 1.149 0 0 255 255
-0.016471429 -0.22291334 1.153 0 0 255 255
-0.014275238 -0.22291334 1.153 0 0 255 255
-0.012079047 -0.22291334 1.153 0 0 255 255
-0.045334287 -0.22224857 1.161 0 0 255 255
-0.042974286 -0.22148286 1.1570001 0 0 255 255
-0.040629521 -0.22071715 1.153 0 0 255 255
-0.038433332 -0.22071715 1.153 0 0 255 255
-0.036111429 -0.21995144 1.149 0 0 255 255
-0.033922859 -0.21995144 1.149 0 0 255 255
-0.031734288 -0.21995144 1.149 0 0 255 255
-0.029545715 -0.21995144 1.149 0 0 255 255
-0.027357142 -0.21995144 1.149 0 0 255 255
-0.025168573 -0.21995144 1.149 0 0 255 255
-0.022980001 -0.21995144 1.149 0 0 255 255
-0.02079143 -0.21995144 1.149 0 0 255 255
-0.018602857 -0.21995144 1.149 0 0 255 255
-0.016414287 -0.21995144 1.149 0 0 255 255
-0.014275238 -0.22071715 1.153 0 0 255 255
-0.012079047 -0.22071715 1.153 0 0 255 255
-0.0098828571 -0.22071715 1.153 0 0 255 255
-0.0076866667 -0.22071715 1.153 0 0 255 255
-0.060185716 -0.21776287 1.149 0 0 255 255
-0.057997145 -0.21776287 1.149 0 0 255 255
-0.055808574 -0.21776287 1.149 0 0 255 255
-0.053620003 -0.21776287 1.149 0 0 255 255
-0.051431429 -0.21776287 1.149 0 0 255 255
-0.049242858 -0.21776287 1.149 0 0 255 255
-0.047054287 -0.21776287 1.149 0 0 255 255
-0.045021903 -0.21852095 1.153 0 0 255 255
-0.042974286 -0.21927905 1.1570001 0 0 255 255
-0.040629521 -0.21852095 1.153 0 0 255 255
-0.038433332 -0.21852095 1.153 0 0 255 255
-0.036111429 -0.21776287 1.149 0 0 255 255
-0.033922859 -0.21776287 1.149 0 0 255 255
-0.031734288 -0.21776287 1.149 0 0 255 255
-0.029545715 -0.21776287 1.149 0 0 255 255
-0.027357142 -0.21776287 1.149 0 0 255 255
-0.025168573 -0.21776287 1.149 0 0 255 255
-0.022980001 -0.21776287 1.149 0 0 255 255
-0.02079143 -0.21776287 1.149 0 0 255 255
-0.018602857 -0.21776287 1.149 0 0 255 255
-0.016414287 -0.21776287 1.149 0 0 255 255
-0.014225715 -0.21776287 1.149 0 0 255 255
-0.012037144 -0.21776287 1.149 0 0 255 255
-0.0098828571 -0.21852095 1.153 0 0 255 255
-0.0076866667 -0.21852095 1.153 0 0 255 255
-0.0054904758 -0.21852095 1.153 0 0 255 255
-0.0032942859 -0.21852095 1.153 0 0 255 255
-0.066983812 -0.21632476 1.153 0 0 255 255
-0.064562857 -0.21557429 1.149 0 0 255 255
-0.06237429 -0.21557429 1.149 0 0 255 255
-0.060185716 -0.21557429 1.149 0 0 255 255
-0.057997145 -0.21557429 1.149 0 0 255 255
-0.055808574 -0.21557429 1.149 0 0 255 255
-0.053620003 -0.21557429 1.149 0 0 255 255
-0.051431429 -0.21557429 1.149 0 0 255 255
-0.049242858 -0.21557429 1.149 0 0 255 255
-0.047054287 -0.21557429 1.149 0 0 255 255
-0.045021903 -0.21632476 1.153 0 0 255 255
-0.042825714 -0.21632476 1.153 0 0 255 255
-0.040629521 -0.21632476 1.153 0 0 255 255
-0.038433332 -0.21632476 1.153 0 0 255 255
-0.036237143 -0.21632476 1.153 0 0 255 255
-0.033922859 -0.21557429 1.149 0 0 255 255
-0.031734288 -0.21557429 1.149 0 0 255 255
-0.029545715 -0.21557429 1.149 0 0 255 255
-0.027357142 -0.21557429 1.149 0 0 255 255
-0.025168573 -0.21557429 1.149 0 0 255 255
-0.022980001 -0.21557429 1.149 0 0 255 255
-0.02079143 -0.21557429 1.149 0 0 255 255
-0.018602857 -0.21557429 1.149 0 0 255 255
-0.016414287 -0.21557429 1.149 0 0 255 255
-0.014225715 -0.21557429 1.149 0 0 255 255
-0.012037144 -0.21557429 1.149 0 0 255 255
-0.0098485723 -0.21557429 1.149 0 0 255 255
-0.0076600001 -0.21557429 1.149 0 0 255 255
-0.0054714289 -0.21557429 1.149 0 0 255 255
-0.0032828571 -0.21557429 1.149 0 0 255 255
-0.0010980952 -0.21632476 1.153 0 0 255 255
0.0010980952 -0.21632476 1.153 0 0 255 255
0.0032828571 -0.21557429 1.149 0 0 255 255
0.0054714289 -0.21557429 1.149 0 0 255 255
-0.068939999 -0.21338572 1.149 0 0 255 255
-0.066751435 -0.21338572 1.149 0 0 255 255
-0.064562857 -0.21338572 1.149 0 0 255 255
-0.06237429 -0.21338572 1.149 0 0 255 255
-0.060185716 -0.21338572 1.149 0 0 255 255
-0.057997145 -0.21338572 1.149 0 0 255 255
-0.055808574 -0.21338572 1.149 0 0 255 255
-0.053620003 -0.21338572 1.149 0 0 255 255
-0.051431429 -0.21338572 1.149 0 0 255 255
-0.049242858 -0.21338572 1.149 0 0 255 255
-0.047054287 -0.21338572 1.149 0 0 255 255
-0.044865716 -0.21338572 1.149 0 0 255 255
-0.042825714 -0.21412857 1.153 0 0 255 255
-0.040629521 -0.21412857 1.153 0 0 255 255
-0.0383 -0.21338572 1.149 0 0 255 255
-0.036111429 -0.21338572 1.149 0 0 255 255
-0.033922859 -0.21338572 1.149 0 0 255 255
-0.031734288 -0.21338572 1.149 0 0 255 255
-0.029545715 -0.21338572 1.149 0 0 255 255
-0.027261905 -0.21264288 1.1450001 0 0 255 255
-0.025080955 -0.21264288 1.1450001 0 0 255 255
-0.022900002 -0.21264288 1.1450001 0 0 255 255
-0.020719048 -0.21264288 1.1450001 0 0 255 255
-0.018602857 -0.21338572 1.149 0 0 255 255
-0.016414287 -0.21338572 1.149 0 0 255 255
-0.014225715 -0.21338572 1.149 0 0 255 255
-0.012037144 -0.21338572 1.149 0 0 255 255
-0.0098485723 -0.21338572 1.149 0 0 255 255
-0.0076600001 -0.21338572 1.149 0 0 255 255
-0.0054714289 -0.21338572 1.149 0 0 255 255
-0.0032828571 -0.21338572 1.149 0 0 255 255
-0.0010980952 -0.21412857 1.153 0 0 255 255
0.0010980952 -0.21412857 1.153 0 0 255 255
0.0032828571 -0.21338572 1.149 0 0 255 255
0.0054714289 -0.21338572 1.149 0 0 255 255
0.0076600001 -0.21338572 1.149 0 0 255 255
0.0098485723 -0.21338572 1.149 0 0 255 255
-0.07331714 -0.21119714 1.149 0 0 255 255
-0.071128577 -0.21119714 1.149 0 0 255 255
-0.068939999 -0.21119714 1.149 0 0 255 255
-0.066751435 -0.21119714 1.149 0 0 255 255
-0.064562857 -0.21119714 1.149 0 0 255 255
-0.06237429 -0.21119714 1.149 0 0 255 255
-0.060185716 -0.21119714 1.149 0 0 255 255
-0.057997145 -0.21119714 1.149 0 0 255 255
-0.055808574 -0.21119714 1.149 0 0 255 255
-0.053620003 -0.21119714 1.149 0 0 255 255
-0.051431429 -0.21119714 1.149 0 0 255 255
-0.049242858 -0.21119714 1.149 0 0 255 255
-0.047054287 -0.21119714 1.149 0 0 255 255
-0.044865716 -0.21119714 1.149 0 0 255 255
-0.042677142 -0.21119714 1.149 0 0 255 255
-0.040488571 -0.21119714 1.149 0 0 255 255
-0.0383 -0.21119714 1.149 0 0 255 255
-0.036111429 -0.21119714 1.149 0 0 255 255
-0.033922859 -0.21119714 1.149 0 0 255 255
-0.031734288 -0.21119714 1.149 0 0 255 255
-0.029545715 -0.21119714 1.149 0 0 255 255
-0.027261905 -0.21046191 1.1450001 0 0 255 255
-0.025080955 -0.21046191 1.1450001 0 0 255 255
-0.022900002 -0.21046191 1.1450001 0 0 255 255
-0.020719048 -0.21046191 1.1450001 0 0 255 255
-0.018602857 -0.21119714 1.149 0 0 255 255
-0.016414287 -0.21119714 1.149 0 0 255 255
-0.014225715 -0.21119714 1.149 0 0 255 255
-0.012037144 -0.21119714 1.149 0 0 255 255
-0.0098485723 -0.21119714 1.149 0 0 255 255
-0.0076600001 -0.21119714 1.149 0 0 255 255
-0.0054714289 -0.21119714 1.149 0 0 255 255
-0.0032828571 -0.21119714 1.149 0 0 255 255
-0.0010942857 -0.21119714 1.149 0 0 255 255
0.0010942857 -0.21119714 1.149 0 0 255 255
0.0032828571 -0.21119714 1.149 0 0 255 255
0.0054714289 -0.21119714 1.149 0 0 255 255
0.0076600001 -0.21119714 1.149 0 0 255 255
0.0098485723 -0.21119714 1.149 0 0 255 255
0.012037144 -0.21119714 1.149 0 0 255 255
0.014275238 -0.21193239 1.153 0 0 255 255
0.016471429 -0.21193239 1.153 0 0 255 255
-0.07331714 -0.20900859 1.149 0 0 255 255
-0.071128577 -0.20900859 1.149 0 0 255 255
-0.068939999 -0.20900859 1.149 0 0 255 255
-0.066751435 -0.20900859 1.149 0 0 255 255
-0.064562857 -0.20900859 1.149 0 0 255 255
-0.06237429 -0.20900859 1.149 0 0 255 255
-0.060185716 -0.20900859 1.149 0 0 255 255
-0.057997145 -0.20900859 1.149 0 0 255 255
-0.055808574 -0.20900859 1.149 0 0 255 255
-0.053620003 -0.20900859 1.149 0 0 255 255
-0.051431429 -0.20900859 1.149 0 0 255 255
-0.049242858 -0.20900859 1.149 0 0 255 255
-0.047054287 -0.20900859 1.149 0 0 255 255
-0.044865716 -0.20900859 1.149 0 0 255 255
-0.042677142 -0.20900859 1.149 0 0 255 255
-0.040488571 -0.20900859 1.149 0 0 255 255
-0.0383 -0.20900859 1.149 0 0 255 255
-0.036111429 -0.20900859 1.149 0 0 255 255
-0.033922859 -0.20900859 1.149 0 0 255 255
-0.031734288 -0.20900859 1.149 0 0 255 255
-0.029545715 -0.20900859 1.149 0 0 255 255
-0.027357142 -0.20900859 1.149 0 0 255 255
-0.025080955 -0.20828097 1.1450001 0 0 255 255
-0.022900002 -0.20828097 1.1450001 0 0 255 255
-0.020719048 -0.20828097 1.1450001 0 0 255 255
-0.018602857 -0.20900859 1.149 0 0 255 255
-0.016414287 -0.20900859 1.149 0 0 255 255
-0.014225715 -0.20900859 1.149 0 0 255 255
-0.012037144 -0.20900859 1.149 0 0 255 255
-0.0098485723 -0.20900859 1.149 0 0 255 255
-0.0076600001 -0.20900859 1.149 0 0 255 255
-0.0054714289 -0.20900859 1.149 0 0 255 255
-0.0032828571 -0.20900859 1.149 0 0 255 255
-0.0010942857 -0.20900859 1.149 0 0 255 255
0.0010942857 -0.20900859 1.149 0 0 255 255
0.0032828571 -0.20900859 1.149 0 0 255 255
0.0054714289 -0.20900859 1.149 0 0 255 255
0.0076600001 -0.20900859 1.149 0 0 255 255
0.0098485723 -0.20900859 1.149 0 0 255 255
0.012037144 -0.20900859 1.149 0 0 255 255
0.014225715 -0.20900859 1.149 0 0 255 255
0.016414287 -0.20900859 1.149 0 0 255 255
0.018602857 -0.20900859 1.149 0 0 255 255
0.02079143 -0.20900859 1.149 0 0 255 255
0.022980001 -0.20900859 1.149 0 0 255 255
0.025256189 -0.20973618 1.153 0 0 255 255
-0.07331714 -0.20682001 1.149 0 0 255 255
-0.071128577 -0.20682001 1.149 0 0 255 255
-0.068939999 -0.20682001 1.149 0 0 255 255
-0.066751435 -0.20682001 1.149 0 0 255 255
-0.064562857 -0.20682001 1.149 0 0 255 255
-0.06237429 -0.20682001 1.149 0 0 255 255
-0.060185716 -0.20682001 1.149 0 0 255 255
-0.057997145 -0.20682001 1.149 0 0 255 255
-0.055808574 -0.20682001 1.149 0 0 255 255
-0.053620003 -0.20682001 1.149 0 0 255 255
-0.051431429 -0.20682001 1.149 0 0 255 255
-0.049242858 -0.20682001 1.149 0 0 255 255
-0.047054287 -0.20682001 1.149 0 0 255 255
-0.044865716 -0.20682001 1.149 0 0 255 255
-0.042677142 -0.20682001 1.149 0 0 255 255
-0.040488571 -0.20682001 1.149 0 0 255 255
-0.0383 -0.20682001 1.149 0 0 255 255
-0.036111429 -0.20682001 1.149 0 0 255 255
-0.033922859 -0.20682001 1.149 0 0 255 255
-0.031734288 -0.20682001 1.149 0 0 255 255
-0.029545715 -0.20682001 1.149 0 0 255 255
-0.027357142 -0.20682001 1.149 0 0 255 255
-0.025168573 -0.20682001 1.149 0 0 255 255
-0.022980001 -0.20682001 1.149 0 0 255 255
-0.02079143 -0.20682001 1.149 0 0 255 255
-0.018602857 -0.20682001 1.149 0 0 255 255
-0.016414287 -0.20682001 1.149 0 0 255 255
-0.014225715 -0.20682001 1.149 0 0 255 255
-0.012037144 -0.20682001 1.149 0 0 255 255
-0.0098485723 -0.20682001 1.149 0 0 255 255
-0.0076600001 -0.20682001 1.149 0 0 255 255
-0.0054714289 -0.20682001 1.149 0 0 255 255
-0.0032828571 -0.20682001 1.149 0 0 255 255
-0.0010942857 -0.20682001 1.149 0 0 255 255
0.0010942857 -0.20682001 1.149 0 0 255 255
0.0032828571 -0.20682001 1.149 0 0 255 255
0.0054714289 -0.20682001 1.149 0 0 255 255
0.0076600001 -0.20682001 1.149 0 0 255 255
0.0098485723 -0.20682001 1.149 0 0 255 255
0.012037144 -0.20682001 1.149 0 0 255 255
0.014225715 -0.20682001 1.149 0 0 255 255
0.016414287 -0.20682001 1.149 0 0 255 255
0.018602857 -0.20682001 1.149 0 0 255 255
0.02079143 -0.20682001 1.149 0 0 255 255
0.022980001 -0.20682001 1.149 0 0 255 255
0.025256189 -0.20753999 1.153 0 0 255 255
0.027452381 -0.20753999 1.153 0 0 255 255
0.029751431 -0.20826001 1.1570001 0 0 255 255
0.031955238 -0.20826001 1.1570001 0 0 255 255
0.034159049 -0.20826001 1.1570001 0 0 255 255
0.03636286 -0.20826001 1.1570001 0 0 255 255
0.038566668 -0.20826001 1.1570001 0 0 255 255
0.040629521 -0.20753999 1.153 0 0 255 255
0.042825714 -0.20753999 1.153 0 0 255 255
0.044865716 -0.20682001 1.149 0 0 255 255
0.047054287 -0.20682001 1.149 0 0 255 255
0.049414285 -0.20753999 1.153 0 0 255 255
0.051431429 -0.20682001 1.149 0 0 255 255
0.053620003 -0.20682001 1.149 0 0 255 255
0.055808574 -0.20682001 1.149 0 0 255 255
0.058199048 -0.20753999 1.153 0 0 255 255
0.060395237 -0.20753999 1.153 0 0 255 255
-0.071128577 -0.20463143 1.149 0 0 255 255
-0.068939999 -0.20463143 1.149 0 0 255 255
-0.066751435 -0.20463143 1.149 0 0 255 255
-0.064787619 -0.2053438 1.153 0 0 255 255
-0.06237429 -0.20463143 1.149 0 0 255 255
-0.060185716 -0.20463143 1.149 0 0 255 255
-0.057997145 -0.20463143 1.149 0 0 255 255
-0.055808574 -0.20463143 1.149 0 0 255 255
-0.053620003 -0.20463143 1.149 0 0 255 255
-0.051431429 -0.20463143 1.149 0 0 255 255
-0.049242858 -0.20463143 1.149 0 0 255 255
-0.046890479 -0.20391907 1.1450001 0 0 255 255
-0.044709526 -0.20391907 1.1450001 0 0 255 255
-0.042528573 -0.20391907 1.1450001 0 0 255 255
-0.040347625 -0.20391907 1.1450001 0 0 255 255
-0.0383 -0.20463143 1.149 0 0 255 255
-0.036111429 -0.20463143 1.149 0 0 255 255
-0.033922859 -0.20463143 1.149 0 0 255 255
-0.031844761 -0.2053438 1.153 0 0 255 255
-0.029545715 -0.20463143 1.149 0 0 255 255
-0.027357142 -0.20463143 1.149 0 0 255 255
-0.025168573 -0.20463143 1.149 0 0 255 255
-0.022980001 -0.20463143 1.149 0 0 255 255
-0.02079143 -0.20463143 1.149 0 0 255 255
-0.018602857 -0.20463143 1.149 0 0 255 255
-0.016414287 -0.20463143 1.149 0 0 255 255
-0.014225715 -0.20463143 1.149 0 0 255 255
-0.012037144 -0.20463143 1.149 0 0 255 255
-0.0098485723 -0.20463143 1.149 0 0 255 255
-0.0076600001 -0.20463143 1.149 0 0 255 255
-0.0054714289 -0.20463143 1.149 0 0 255 255
-0.0032828571 -0.20463143 1.149 0 0 255 255
-0.0010942857 -0.20463143 1.149 0 0 255 255
0.0010942857 -0.20463143 1.149 0 0 255 255
0.0032828571 -0.20463143 1.149 0 0 255 255
0.0054714289 -0.20463143 1.149 0 0 255 255
0.0076600001 -0.20463143 1.149 0 0 255 255
0.0098485723 -0.20463143 1.149 0 0 255 255
0.012037144 -0.20463143 1.149 0 0 255 255
0.014225715 -0.20463143 1.149 0 0 255 255
0.016414287 -0.20463143 1.149 0 0 255 255
0.018602857 -0.20463143 1.149 0 0 255 255
0.02079143 -0.20463143 1.149 0 0 255 255
0.022980001 -0.20463143 1.149 0 0 255 255
0.025256189 -0.2053438 1.153 0 0 255 255
0.027452381 -0.2053438 1.153 0 0 255 255
0.029648572 -0.2053438 1.153 0 0 255 255
0.031844761 -0.2053438 1.153 0 0 255 255
0.03404095 -0.2053438 1.153 0 0 255 255
0.036237143 -0.2053438 1.153 0 0 255 255
0.038433332 -0.2053438 1.153 0 0 255 255
0.040629521 -0.2053438 1.153 0 0 255 255
0.042825714 -0.2053438 1.153 0 0 255 255
0.044865716 -0.20463143 1.149 0 0 255 255
0.047054287 -0.20463143 1.149 0 0 255 255
0.049414285 -0.2053438 1.153 0 0 255 255
0.051431429 -0.20463143 1.149 0 0 255 255
0.053620003 -0.20463143 1.149 0 0 255 255
0.055808574 -0.20463143 1.149 0 0 255 255
0.058199048 -0.2053438 1.153 0 0 255 255
0.060185716 -0.20463143 1.149 0 0 255 255
0.06237429 -0.20463143 1.149 0 0 255 255
0.064787619 -0.2053438 1.153 0 0 255 255
0.066983812 -0.2053438 1.153 0 0 255 255
0.07796476 -0.2053438 1.153 0 0 255 255
0.080160953 -0.2053438 1.153 0 0 255 255
0.082357138 -0.2053438 1.153 0 0 255 255
0.084553331 -0.2053438 1.153 0 0 255 255
-0.071128577 -0.20244285 1.149 0 0 255 255
-0.068939999 -0.20244285 1.149 0 0 255 255
-0.066751435 -0.20244285 1.149 0 0 255 255
-0.064787619 -0.20314761 1.153 0 0 255 255
-0.06237429 -0.20244285 1.149 0 0 255 255
-0.060185716 -0.20244285 1.149 0 0 255 255
-0.057997145 -0.20244285 1.149 0 0 255 255
-0.055808574 -0.20244285 1.149 0 0 255 255
-0.053620003 -0.20244285 1.149 0 0 255 255
-0.051431429 -0.20244285 1.149 0 0 255 255
-0.049242858 -0.20244285 1.149 0 0 255 255
-0.046890479 -0.2017381 1.1450001 0 0 255 255
-0.044709526 -0.2017381 1.1450001 0 0 255 255
-0.042528573 -0.2017381 1.1450001 0 0 255 255
-0.040347625 -0.2017381 1.1450001 0 0 255 255
-0.0383 -0.20244285 1.149 0 0 255 255
-0.036111429 -0.20244285 1.149 0 0 255 255
-0.033922859 -0.20244285 1.149 0 0 255 255
-0.031734288 -0.20244285 1.149 0 0 255 255
-0.029545715 -0.20244285 1.149 0 0 255 255
-0.027357142 -0.20244285 1.149 0 0 255 255
-0.025168573 -0.20244285 1.149 0 0 255 255
-0.022980001 -0.20244285 1.149 0 0 255 255
-0.02079143 -0.20244285 1.149 0 0 255 255
-0.018602857 -0.20244285 1.149 0 0 255 255
-0.016414287 -0.20244285 1.149 0 0 255 255
-0.014225715 -0.20244285 1.149 0 0 255 255
-0.012037144 -0.20244285 1.149 0 0 255 255
-0.0098485723 -0.20244285 1.149 0 0 255 255
-0.0076600001 -0.20244285 1.149 0 0 255 255
-0.0054714289 -0.20244285 1.149 0 0 255 255
-0.0032828571 -0.20244285 1.149 0 0 255 255
-0.0010942857 -0.20244285 1.149 0 0 255 255
0.0010942857 -0.20244285 1.149 0 0 255 255
0.0032828571 -0.20244285 1.149 0 0 255 255
0.0054714289 -0.20244285 1.149 0 0 255 255
0.0076600001 -0.20244285 1.149 0 0 255 255
0.0098485723 -0.20244285 1.149 0 0 255 255
0.012037144 -0.20244285 1.149 0 0 255 255
0.014225715 -0.20244285 1.149 0 0 255 255
0.016414287 -0.20244285 1.149 0 0 255 255
0.018602857 -0.20244285 1.149 0 0 255 255
0.02079143 -0.20244285 1.149 0 0 255 255
0.022980001 -0.20244285 1.149 0 0 255 255
0.025168573 -0.20244285 1.149 0 0 255 255
0.027452381 -0.20314761 1.153 0 0 255 255
0.029648572 -0.20314761 1.153 0 0 255 255
0.031844761 -0.20314761 1.153 0 0 255 255
0.03404095 -0.20314761 1.153 0 0 255 255
0.036237143 -0.20314761 1.153 0 0 255 255
0.038433332 -0.20314761 1.153 0 0 255 255
0.040629521 -0.20314761 1.153 0 0 255 255
0.042825714 -0.20314761 1.153 0 0 255 255
0.045021903 -0.20314761 1.153 0 0 255 255
0.047218092 -0.20314761 1.153 0 0 255 255
0.049414285 -0.20314761 1.153 0 0 255 255
0.051610474 -0.20314761 1.153 0 0 255 255
0.053806666 -0.20314761 1.153 0 0 255 255
0.056002859 -0.20314761 1.153 0 0 255 255
0.058199048 -0.20314761 1.153 0 0 255 255
0.060185716 -0.20244285 1.149 0 0 255 255
0.06237429 -0.20244285 1.149 0 0 255 255
0.064787619 -0.20314761 1.153 0 0 255 255
0.066983812 -0.20314761 1.153 0 0 255 255
0.069179997 -0.20314761 1.153 0 0 255 255
0.07162381 -0.20385239 1.1570001 0 0 255 255
0.073827624 -0.20385239 1.1570001 0 0 255 255
0.075768568 -0.20314761 1.153 0 0 255 255
0.07796476 -0.20314761 1.153 0 0 255 255
0.080160953 -0.20314761 1.153 0 0 255 255
0.082357138 -0.20314761 1.153 0 0 255 255
0.084553331 -0.20314761 1.153 0 0 255 255
-0.044865716 -0.20025429 1.149 0 0 255 255
-0.042528573 -0.19955716 1.1450001 0 0 255 255
-0.040347625 -0.19955716 1.1450001 0 0 255 255
-0.038166672 -0.19955716 1.1450001 0 0 255 255
-0.036111429 -0.20025429 1.149 0 0 255 255
-0.033922859 -0.20025429 1.149 0 0 255 255
-0.031734288 -0.20025429 1.149 0 0 255 255
-0.029545715 -0.20025429 1.149 0 0 255 255
-0.027357142 -0.20025429 1.149 0 0 255 255
-0.025168573 -0.20025429 1.149 0 0 255 255
-0.022980001 -0.20025429 1.149 0 0 255 255
-0.02079143 -0.20025429 1.149 0 0 255 255
-0.018602857 -0.20025429 1.149 0 0 255 255
-0.016414287 -0.20025429 1.149 0 0 255 255
-0.014225715 -0.20025429 1.149 0 0 255 255
-0.012037144 -0.20025429 1.149 0 0 255 255
-0.0098485723 -0.20025429 1.149 0 0 255 255
-0.0076600001 -0.20025429 1.149 0 0 255 255
-0.0054714289 -0.20025429 1.149 0 0 255 255
-0.0032828571 -0.20025429 1.149 0 0 255 255
-0.0010942857 -0.20025429 1.149 0 0 255 255
0.0010942857 -0.20025429 1.149 0 0 255 255
0.0032828571 -0.20025429 1.149 0 0 255 255
0.0054714289 -0.20025429 1.149 0 0 255 255
0.0076600001 -0.20025429 1.149 0 0 255 255
0.0098485723 -0.20025429 1.149 0 0 255 255
0.012037144 -0.20025429 1.149 0 0 255 255
0.014225715 -0.20025429 1.149 0 0 255 255
0.016414287 -0.20025429 1.149 0 0 255 255
0.018602857 -0.20025429 1.149 0 0 255 255
0.02079143 -0.20025429 1.149 0 0 255 255
0.022980001 -0.20025429 1.149 0 0 255 255
0.025168573 -0.20025429 1.149 0 0 255 255
0.027357142 -0.20025429 1.149 0 0 255 255
0.029648572 -0.20095141 1.153 0 0 255 255
0.031844761 -0.20095141 1.153 0 0 255 255
0.03404095 -0.20095141 1.153 0 0 255 255
0.036237143 -0.20095141 1.153 0 0 255 255
0.038433332 -0.20095141 1.153 0 0 255 255
0.040629521 -0.20095141 1.153 0 0 255 255
0.042825714 -0.20095141 1.153 0 0 255 255
0.045021903 -0.20095141 1.153 0 0 255 255
0.047218092 -0.20095141 1.153 0 0 255 255
0.049414285 -0.20095141 1.153 0 0 255 255
0.051610474 -0.20095141 1.153 0 0 255 255
0.053806666 -0.20095141 1.153 0 0 255 255
0.056002859 -0.20095141 1.153 0 0 255 255
0.058199048 -0.20095141 1.153 0 0 255 255
0.060395237 -0.20095141 1.153 0 0 255 255
0.062591426 -0.20095141 1.153 0 0 255 255
0.064787619 -0.20095141 1.153 0 0 255 255
0.066983812 -0.20095141 1.153 0 0 255 255
0.069179997 -0.20095141 1.153 0 0 255 255
0.07137619 -0.20095141 1.153 0 0 255 255
0.073572382 -0.20095141 1.153 0 0 255 255
0.075768568 -0.20095141 1.153 0 0 255 255
0.07796476 -0.20095141 1.153 0 0 255 255
0.080160953 -0.20095141 1.153 0 0 255 255
0.082357138 -0.20095141 1.153 0 0 255 255
0.084553331 -0.20095141 1.153 0 0 255 255
-0.042528573 -0.19737621 1.1450001 0 0 255 255
-0.040347625 -0.19737621 1.1450001 0 0 255 255
-0.038166672 -0.19737621 1.1450001 0 0 255 255
-0.036111429 -0.19806573 1.149 0 0 255 255
-0.033922859 -0.19806573 1.149 0 0 255 255
-0.031734288 -0.19806573 1.149 0 0 255 255
-0.029545715 -0.19806573 1.149 0 0 255 255
-0.027357142 -0.19806573 1.149 0 0 255 255
-0.025168573 -0.19806573 1.149 0 0 255 255
-0.022980001 -0.19806573 1.149 0 0 255 255
-0.02079143 -0.19806573 1.149 0 0 255 255
-0.018602857 -0.19806573 1.149 0 0 255 255
-0.016414287 -0.19806573 1.149 0 0 255 255
-0.014225715 -0.19806573 1.149 0 0 255 255
-0.012037144 -0.19806573 1.149 0 0 255 255
-0.0098485723 -0.19806573 1.149 0 0 255 255
-0.0076600001 -0.19806573 1.149 0 0 255 255
-0.0054714289 -0.19806573 1.149 0 0 255 255
-0.0032828571 -0.19806573 1.149 0 0 255 255
-0.0010942857 -0.19806573 1.149 0 0 255 255
0.0010942857 -0.19806573 1.149 0 0 255 255
0.0032828571 -0.19806573 1.149 0 0 255 255
0.0054714289 -0.19806573 1.149 0 0 255 255
0.0076600001 -0.19806573 1.149 0 0 255 255
0.0098485723 -0.19806573 1.149 0 0 255 255
0.012037144 -0.19806573 1.149 0 0 255 255
0.014225715 -0.19806573 1.149 0 0 255 255
0.016414287 -0.19806573 1.149 0 0 255 255
0.018602857 -0.19806573 1.149 0 0 255 255
0.02079143 -0.19806573 1.149 0 0 255 255
0.022980001 -0.19806573 1.149 0 0 255 255
0.025168573 -0.19806573 1.149 0 0 255 255
0.027357142 -0.19806573 1.149 0 0 255 255
0.029648572 -0.19875523 1.153 0 0 255 255
0.031734288 -0.19806573 1.149 0 0 255 255
0.033922859 -0.19806573 1.149 0 0 255 255
0.036237143 -0.19875523 1.153 0 0 255 255
0.038433332 -0.19875523 1.153 0 0 255 255
0.040629521 -0.19875523 1.153 0 0 255 255
0.042825714 -0.19875523 1.153 0 0 255 255
0.045021903 -0.19875523 1.153 0 0 255 255
0.047218092 -0.19875523 1.153 0 0 255 255
0.049414285 -0.19875523 1.153 0 0 255 255
0.051610474 -0.19875523 1.153 0 0 255 255
0.053806666 -0.19875523 1.153 0 0 255 255
0.056002859 -0.19875523 1.153 0 0 255 255
0.058199048 -0.19875523 1.153 0 0 255 255
0.060395237 -0.19875523 1.153 0 0 255 255
0.062591426 -0.19875523 1.153 0 0 255 255
0.064787619 -0.19875523 1.153 0 0 255 255
0.066983812 -0.19875523 1.153 0 0 255 255
0.069179997 -0.19875523 1.153 0 0 255 255
0.07137619 -0.19875523 1.153 0 0 255 255
0.073572382 -0.19875523 1.153 0 0 255 255
0.075768568 -0.19875523 1.153 0 0 255 255
0.07796476 -0.19875523 1.153 0 0 255 255
0.080160953 -0.19875523 1.153 0 0 255 255
0.082357138 -0.19875523 1.153 0 0 255 255
0.084553331 -0.19875523 1.153 0 0 255 255
-0.0383 -0.19587715 1.149 0 0 255 255
-0.036111429 -0.19587715 1.149 0 0 255 255
-0.033922859 -0.19587715 1.149 0 0 255 255
-0.031734288 -0.19587715 1.149 0 0 255 255
-0.029648572 -0.19655904 1.153 0 0 255 255
-0.027357142 -0.19587715 1.149 0 0 255 255
-0.025168573 -0.19587715 1.149 0 0 255 255
-0.022980001 -0.19587715 1.149 0 0 255 255
-0.02079143 -0.19587715 1.149 0 0 255 255
-0.018602857 -0.19587715 1.149 0 0 255 255
-0.016414287 -0.19587715 1.149 0 0 255 255
-0.014225715 -0.19587715 1.149 0 0 255 255
-0.012037144 -0.19587715 1.149 0 0 255 255
-0.0098485723 -0.19587715 1.149 0 0 255 255
-0.0076600001 -0.19587715 1.149 0 0 255 255
-0.0054714289 -0.19587715 1.149 0 0 255 255
-0.0032828571 -0.19587715 1.149 0 0 255 255
-0.0010942857 -0.19587715 1.149 0 0 255 255
0.0010942857 -0.19587715 1.149 0 0 255 255
0.0032828571 -0.19587715 1.149 0 0 255 255
0.0054714289 -0.19587715 1.149 0 0 255 255
0.0076600001 -0.19587715 1.149 0 0 255 255
0.0098485723 -0.19587715 1.149 0 0 255 255
0.012037144 -0.19587715 1.149 0 0 255 255
0.014225715 -0.19587715 1.149 0 0 255 255
0.016471429 -0.19655904 1.153 0 0 255 255
0.018602857 -0.19587715 1.149 0 0 255 255
0.02079143 -0.19587715 1.149 0 0 255 255
0.022980001 -0.19587715 1.149 0 0 255 255
0.025256189 -0.19655904 1.153 0 0 255 255
0.027452381 -0.19655904 1.153 0 0 255 255
0.029648572 -0.19655904 1.153 0 0 255 255
0.031734288 -0.19587715 1.149 0 0 255 255
0.033922859 -0.19587715 1.149 0 0 255 255
0.036111429 -0.19587715 1.149 0 0 255 255
0.038433332 -0.19655904 1.153 0 0 255 255
0.040629521 -0.19655904 1.153 0 0 255 255
0.042974286 -0.19724096 1.1570001 0 0 255 255
0.0451781 -0.19724096 1.1570001 0 0 255 255
0.051610474 -0.19655904 1.153 0 0 255 255
0.053806666 -0.19655904 1.153 0 0 255 255
0.056002859 -0.19655904 1.153 0 0 255 255
0.058199048 -0.19655904 1.153 0 0 255 255
0.060395237 -0.19655904 1.153 0 0 255 255
0.062591426 -0.19655904 1.153 0 0 255 255
0.064787619 -0.19655904 1.153 0 0 255 255
0.066983812 -0.19655904 1.153 0 0 255 255
0.069179997 -0.19655904 1.153 0 0 255 255
0.07137619 -0.19655904 1.153 0 0 255 255
0.073572382 -0.19655904 1.153 0 0 255 255
0.075768568 -0.19655904 1.153 0 0 255 255
0.07796476 -0.19655904 1.153 0 0 255 255
0.080160953 -0.19655904 1.153 0 0 255 255
0.082357138 -0.19655904 1.153 0 0 255 255
0.084553331 -0.19655904 1.153 0 0 255 255
-0.036111429 -0.19368857 1.149 0 0 255 255
-0.033922859 -0.19368857 1.149 0 0 255 255
-0.031734288 -0.19368857 1.149 0 0 255 255
-0.029545715 -0.19368857 1.149 0 0 255 255
-0.027357142 -0.19368857 1.149 0 0 255 255
-0.025168573 -0.19368857 1.149 0 0 255 255
-0.022980001 -0.19368857 1.149 0 0 255 255
-0.02079143 -0.19368857 1.149 0 0 255 255
-0.018602857 -0.19368857 1.149 0 0 255 255
-0.016414287 -0.19368857 1.149 0 0 255 255
-0.014225715 -0.19368857 1.149 0 0 255 255
-0.012037144 -0.19368857 1.149 0 0 255 255
-0.0098485723 -0.19368857 1.149 0 0 255 255
-0.0076600001 -0.19368857 1.149 0 0 255 255
-0.0054714289 -0.19368857 1.149 0 0 255 255
-0.0032828571 -0.19368857 1.149 0 0 255 255
-0.0010942857 -0.19368857 1.149 0 0 255 255
0.0010942857 -0.19368857 1.149 0 0 255 255
0.0032828571 -0.19368857 1.149 0 0 255 255
0.0054904758 -0.19436285 1.153 0 0 255 255
0.0076600001 -0.19368857 1.149 0 0 255 255
0.0098485723 -0.19368857 1.149 0 0 255 255
0.012037144 -0.19368857 1.149 0 0 255 255
0.014225715 -0.19368857 1.149 0 0 255 255
0.016471429 -0.19436285 1.153 0 0 255 255
0.018602857 -0.19368857 1.149 0 0 255 255
0.02079143 -0.19368857 1.149 0 0 255 255
0.022980001 -0.19368857 1.149 0 0 255 255
0.025256189 -0.19436285 1.153 0 0 255 255
0.027452381 -0.19436285 1.153 0 0 255 255
0.029648572 -0.19436285 1.153 0 0 255 255
0.031734288 -0.19368857 1.149 0 0 255 255
0.033922859 -0.19368857 1.149 0 0 255 255
0.036111429 -0.19368857 1.149 0 0 255 255
0.075768568 -0.19436285 1.153 0 0 255 255
0.07796476 -0.19436285 1.153 0 0 255 255
0.082357138 -0.19436285 1.153 0 0 255 255
0.084553331 -0.19436285 1.153 0 0 255 255
-0.033804763 -0.19083335 1.1450001 0 0 255 255
-0.031623811 -0.19083335 1.1450001 0 0 255 255
-0.029545715 -0.19150001 1.149 0 0 255 255
-0.027357142 -0.19150001 1.149 0 0 255 255
-0.025080955 -0.19083335 1.1450001 0 0 255 255
-0.022900002 -0.19083335 1.1450001 0 0 255 255
-0.020719048 -0.19083335 1.1450001 0 0 255 255
-0.018602857 -0.19150001 1.149 0 0 255 255
-0.016414287 -0.19150001 1.149 0 0 255 255
-0.014225715 -0.19150001 1.149 0 0 255 255
-0.012037144 -0.19150001 1.149 0 0 255 255
-0.0098485723 -0.19150001 1.149 0 0 255 255
-0.0076600001 -0.19150001 1.149 0 0 255 255
-0.0054904758 -0.19216666 1.153 0 0 255 255
-0.0032942859 -0.19216666 1.153 0 0 255 255
-0.0010980952 -0.19216666 1.153 0 0 255 255
0.0010980952 -0.19216666 1.153 0 0 255 255
0.0032942859 -0.19216666 1.153 0 0 255 255
0.0054904758 -0.19216666 1.153 0 0 255 255
0.0076600001 -0.19150001 1.149 0 0 255 255
0.0098485723 -0.19150001 1.149 0 0 255 255
0.012079047 -0.19216666 1.153 0 0 255 255
0.014275238 -0.19216666 1.153 0 0 255 255
0.016471429 -0.19216666 1.153 0 0 255 255
0.018667618 -0.19216666 1.153 0 0 255 255
-0.035859998 -0.18799333 1.141 0 0 255 255
-0.033686668 -0.18799333 1.141 0 0 255 255
-0.031513333 -0.18799333 1.141 0 0 255 255
-0.02944286 -0.1886524 1.1450001 0 0 255 255
-0.027261905 -0.1886524 1.1450001 0 0 255 255
-0.025080955 -0.1886524 1.1450001 0 0 255 255
-0.022900002 -0.1886524 1.1450001 0 0 255 255
-0.020719048 -0.1886524 1.1450001 0 0 255 255
-0.018602857 -0.18931143 1.149 0 0 255 255
-0.016414287 -0.18931143 1.149 0 0 255 255
-0.014225715 -0.18931143 1.149 0 0 255 255
-0.012037144 -0.18931143 1.149 0 0 255 255
-0.0098485723 -0.18931143 1.149 0 0 255 255
-0.0076866667 -0.18997046 1.153 0 0 255 255
-0.0054904758 -0.18997046 1.153 0 0 255 255
-0.0032942859 -0.18997046 1.153 0 0 255 255
-0.0010980952 -0.18997046 1.153 0 0 255 255
0.0010980952 -0.18997046 1.153 0 0 255 255
0.0032942859 -0.18997046 1.153 0 0 255 255
0.0055095241 -0.19062953 1.1570001 0 0 255 255
0.0076866667 -0.18997046 1.153 0 0 255 255
0.0098828571 -0.18997046 1.153 0 0 255 255
0.012079047 -0.18997046 1.153 0 0 255 255
0.014275238 -0.18997046 1.153 0 0 255 255
-0.035859998 -0.18582 1.141 0 0 255 255
-0.033686668 -0.18582 1.141 0 0 255 255
-0.031513333 -0.18582 1.141 0 0 255 255
-0.02944286 -0.18647143 1.1450001 0 0 255 255
-0.027261905 -0.18647143 1.1450001 0 0 255 255
-0.025080955 -0.18647143 1.1450001 0 0 255 255
-0.022900002 -0.18647143 1.1450001 0 0 255 255
-0.020719048 -0.18647143 1.1450001 0 0 255 255
-0.018538097 -0.18647143 1.1450001 0 0 255 255
-0.016414287 -0.18712285 1.149 0 0 255 255
-0.014225715 -0.18712285 1.149 0 0 255 255
-0.012037144 -0.18712285 1.149 0 0 255 255
-0.0098485723 -0.18712285 1.149 0 0 255 255
-0.0076866667 -0.18777429 1.153 0 0 255 255
-0.0054904758 -0.18777429 1.153 0 0 255 255
-0.0033057143 -0.18842572 1.1570001 0 0 255 255
-0.0011019048 -0.18842572 1.1570001 0 0 255 255
0.0011019048 -0.18842572 1.1570001 0 0 255 255
0.0033057143 -0.18842572 1.1570001 0 0 255 255
0.0055285715 -0.18907715 1.161 0 0 255 255
0.0077133342 -0.18842572 1.1570001 0 0 255 255
0.0099171428 -0.18842572 1.1570001 0 0 255 255
-0.038033333 -0.18364668 1.141 0 0 255 255
-0.035859998 -0.18364668 1.141 0 0 255 255
-0.033686668 -0.18364668 1.141 0 0 255 255
-0.031623811 -0.1842905 1.1450001 0 0 255 255
-0.02944286 -0.1842905 1.1450001 0 0 255 255
-0.027261905 -0.1842905 1.1450001 0 0 255 255
-0.024993334 -0.18364668 1.141 0 0 255 255
-0.02282 -0.18364668 1.141 0 0 255 255
-0.020646667 -0.18364668 1.141 0 0 255 255
-0.018538097 -0.1842905 1.1450001 0 0 255 255
-0.016414287 -0.1849343 1.149 0 0 255 255
-0.014225715 -0.1849343 1.149 0 0 255 255
-0.012037144 -0.1849343 1.149 0 0 255 255
-0.0098485723 -0.1849343 1.149 0 0 255 255
-0.0076866667 -0.18557809 1.153 0 0 255 255
-0.0055095241 -0.18622191 1.1570001 0 0 255 255
-0.0033171428 -0.18686572 1.161 0 0 255 255
-0.0011019048 -0.18622191 1.1570001 0 0 255 255
0.0011019048 -0.18622191 1.1570001 0 0 255 255
0.0033171428 -0.18686572 1.161 0 0 255 255
0.0055476194 -0.18750954 1.1650001 0 0 255 255
0.0077666673 -0.18750954 1.1650001 0 0 255 255
0.0099857152 -0.18750954 1.1650001 0 0 255 255
-0.038033333 -0.18147334 1.141 0 0 255 255
-0.035859998 -0.18147334 1.141 0 0 255 255
-0.033686668 -0.18147334 1.141 0 0 255 255
-0.031513333 -0.18147334 1.141 0 0 255 255
-0.029340001 -0.18147334 1.141 0 0 255 255
-0.027261905 -0.18210953 1.1450001 0 0 255 255
-0.024993334 -0.18147334 1.141 0 0 255 255
-0.02282 -0.18147334 1.141 0 0 255 255
-0.020646667 -0.18147334 1.141 0 0 255 255
-0.018538097 -0.18210953 1.1450001 0 0 255 255
-0.016414287 -0.18274572 1.149 0 0 255 255
-0.014225715 -0.18274572 1.149 0 0 255 255
-0.012037144 -0.18274572 1.149 0 0 255 255
-0.0098828571 -0.1833819 1.153 0 0 255 255
-0.0077133342 -0.18401811 1.1570001 0 0 255 255
-0.0055476194 -0.18529049 1.1650001 0 0 255 255
-0.0033399998 -0.18592668 1.169 0 0 255 255
-0.0011133334 -0.18592668 1.169 0 0 255 255
0.0011133334 -0.18592668 1.169 0 0 255 255
0.0033399998 -0.18592668 1.169 0 0 255 255
0.0055666668 -0.18592668 1.169 0 0 255 255
0.0077933338 -0.18592668 1.169 0 0 255 255
0.01002 -0.18592668 1.169 0 0 255 255
-0.038033333 -0.1793 1.141 0 0 255 255
-0.035859998 -0.1793 1.141 0 0 255 255
-0.033686668 -0.1793 1.141 0 0 255 255
-0.031513333 -0.1793 1.141 0 0 255 255
-0.029340001 -0.1793 1.141 0 0 255 255
-0.016471429 -0.18118571 1.153 0 0 255 255
-0.014275238 -0.18118571 1.153 0 0 255 255
-0.012079047 -0.18118571 1.153 0 0 255 255
-0.0099171428 -0.1818143 1.1570001 0 0 255 255
-0.0077666673 -0.18307143 1.1650001 0 0 255 255
-0.0055666668 -0.18370001 1.169 0 0 255 255
-0.003374286 -0.18558574 1.1810001 0 0 255 255
-0.001124762 -0.18558574 1.1810001 0 0 255 255
0.001124762 -0.18558574 1.1810001 0 0 255 255
0.0033628573 -0.18495715 1.177 0 0 255 255
0.0056047621 -0.18495715 1.177 0 0 255 255
0.0078466665 -0.18495715 1.177 0 0 255 255
-0.038033333 -0.17712666 1.141 0 0 255 255
-0.035859998 -0.17712666 1.141 0 0 255 255
-0.033686668 -0.17712666 1.141 0 0 255 255
-0.031513333 -0.17712666 1.141 0 0 255 255
-0.014324762 -0.17961048 1.1570001 0 0 255 255
-0.012120954 -0.17961048 1.1570001 0 0 255 255
-0.007873334 -0.18333621 1.1810001 0 0 255 255
-0.0056619048 -0.18457811 1.189 0 0 255 255
-0.0033971427 -0.18457811 1.189 0 0 255 255
-0.0011285715 -0.18395716 1.1850001 0 0 255 255
0.0011285715 -0.18395716 1.1850001 0 0 255 255
0.003374286 -0.18333621 1.1810001 0 0 255 255
0.00562381 -0.18333621 1.1810001 0 0 255 255
0.007873334 -0.18333621 1.1810001 0 0 255 255
-0.035859998 -0.17495334 1.141 0 0 255 255
-0.033686668 -0.17495334 1.141 0 0 255 255
-0.0079266662 -0.18231334 1.189 0 0 255 255
-0.0057000001 -0.18354 1.197 0 0 255 255
-0.0034085717 -0.18292668 1.1930001 0 0 255 255
-0.0011361905 -0.18292668 1.1930001 0 0 255 255
0.0011323809 -0.18231334 1.189 0 0 255 255
0.0033971427 -0.18231334 1.189 0 0 255 255
0.0056619048 -0.18231334 1.189 0 0 255 255
0.0079266662 -0.18231334 1.189 0 0 255 255
-0.010371429 -0.18322857 1.21 0 0 255 255
-0.0080666672 -0.18322857 1.21 0 0 255 255
-0.0057238098 -0.18201713 1.202 0 0 255 255
-0.0034342855 -0.18201713 1.202 0 0 255 255
-0.0011400001 -0.18125999 1.197 0 0 255 255
0.0011400001 -0.18125999 1.197 0 0 255 255
0.00342 -0.18125999 1.197 0 0 255 255
0.0057000001 -0.18125999 1.197 0 0 255 255
0.0080133341 -0.18201713 1.202 0 0 255 255
0.010337144 -0.18262286 1.2060001 0 0 255 255
-0.010482857 -0.18286762 1.223 0 0 255 255
-0.0080933347 -0.18152192 1.2140001 0 0 255 255
-0.0057428577 -0.18032572 1.2060001 0 0 255 255
-0.0034457145 -0.18032572 1.2060001 0 0 255 255
-0.0011447619 -0.17972763 1.202 0 0 255 255
0.0011447619 -0.17972763 1.202 0 0 255 255
0.0034342855 -0.17972763 1.202 0 0 255 255
0.0057238098 -0.17972763 1.202 0 0 255 255
0.0080400007 -0.18032572 1.2060001 0 0 255 255
0.010337144 -0.18032572 1.2060001 0 0 255 255
-0.010482857 -0.1805381 1.223 0 0 255 255
-0.0081533343 -0.1805381 1.223 0 0 255 255
-0.005780953 -0.17920953 1.2140001 0 0 255 255
-0.0034685717 -0.17920953 1.2140001 0 0 255 255
-0.0011561905 -0.17920953 1.2140001 0 0 255 255
0.001152381 -0.17861904 1.21 0 0 255 255
0.003457143 -0.17861904 1.21 0 0 255 255
0.0057619051 -0.17861904 1.21 0 0 255 255
0.0080933347 -0.17920953 1.2140001 0 0 255 255
0.010405715 -0.17920953 1.2140001 0 0 255 255
-0.010637144 -0.18083143 1.2410001 0 0 255 255
-0.0081800008 -0.17879145 1.2270001 0 0 255 255
-0.0058238097 -0.17820857 1.223 0 0 255 255
-0.0034828575 -0.17762573 1.2190001 0 0 255 255
-0.0011609525 -0.17762573 1.2190001 0 0 255 255
0.0011561905 -0.17689715 1.2140001 0 0 255 255
0.0034685717 -0.17689715 1.2140001 0 0 255 255
0.0058047622 -0.17762573 1.2190001 0 0 255 255
0.0081266677 -0.17762573 1.2190001 0 0 255 255
0.010448572 -0.17762573 1.2190001 0 0 255 255
-0.0082133338 -0.17717335 1.2320001 0 0 255 255
-0.0058428575 -0.17645431 1.2270001 0 0 255 255
-0.0034942857 -0.17587905 1.223 0 0 255 255
-0.0011609525 -0.17530382 1.2190001 0 0 255 255
0.0011609525 -0.17530382 1.2190001 0 0 255 255
0.0034828575 -0.17530382 1.2190001 0 0 255 255
0.0058238097 -0.17587905 1.223 0 0 255 255
0.0081533343 -0.17587905 1.223 0 0 255 255
-0.0082733333 -0.17610382 1.2410001 0 0 255 255
-0.0058857147 -0.17539428 1.2360001 0 0 255 255
-0.0035314288 -0.17539428 1.2360001 0 0 255 255
-0.0011685715 -0.17411715 1.2270001 0 0 255 255
0.0011685715 -0.17411715 1.2270001 0 0 255 255
0.0035057145 -0.17411715 1.2270001 0 0 255 255
0.0058857147 -0.17539428 1.2360001 0 0 255 255
0 0 0 1 0 0 0 1 0 0 0 1 0 0 0 0 0 920 1 0 0
