ply
format ascii 1.0
comment PCL generated
element vertex 1025
property float x
property float y
property float z
property uchar red
property uchar green
property uchar blue
property uchar alpha
element camera 0
property float view_px
property float view_py
property float view_pz
property float x_axisx
property float x_axisy
property float x_axisz
property float y_axisx
property float y_axisy
property float y_axisz
property float z_axisx
property float z_axisy
property float z_axisz
property float focal
property float scalex
property float scaley
property float centerx
property float centery
property int viewportx
property int viewporty
property float k1
property float k2
end_header
0.083500005 -0.23491335 1.169 55 126 184 255
0.085433342 -0.23410954 1.1650001 55 126 184 255
0.087351426 -0.23330572 1.161 55 126 184 255
0.08925429 -0.23250191 1.1570001 55 126 184 255
0.091458097 -0.23250191 1.1570001 55 126 184 255
0.093661912 -0.23250191 1.1570001 55 126 184 255
0.095865719 -0.23250191 1.1570001 55 126 184 255
0.098069526 -0.23250191 1.1570001 55 126 184 255
0.099926665 -0.2316981 1.153 55 126 184 255
0.10212285 -0.2316981 1.153 55 126 184 255
0.10431904 -0.2316981 1.153 55 126 184 255
0.10651524 -0.2316981 1.153 55 126 184 255
0.10833429 -0.2308943 1.149 55 126 184 255
0.11052286 -0.2308943 1.149 55 126 184 255
0.0054904758 -0.2295019 1.153 55 126 184 255
0.0076866667 -0.2295019 1.153 55 126 184 255
0.0098828571 -0.2295019 1.153 55 126 184 255
0.012079047 -0.2295019 1.153 55 126 184 255
0.014275238 -0.2295019 1.153 55 126 184 255
0.016528573 -0.23029812 1.1570001 55 126 184 255
0.018732382 -0.23029812 1.1570001 55 126 184 255
0.020936191 -0.23029812 1.1570001 55 126 184 255
0.02314 -0.23029812 1.1570001 55 126 184 255
0.025343811 -0.23029812 1.1570001 55 126 184 255
0.02754762 -0.23029812 1.1570001 55 126 184 255
0.029854285 -0.23109429 1.161 55 126 184 255
0.032065712 -0.23109429 1.161 55 126 184 255
0.034277145 -0.23109429 1.161 55 126 184 255
0.03648857 -0.23109429 1.161 55 126 184 255
0.038566668 -0.23029812 1.1570001 55 126 184 255
0.040770479 -0.23029812 1.1570001 55 126 184 255
0.042974286 -0.23029812 1.1570001 55 126 184 255
0.045334287 -0.23109429 1.161 55 126 184 255
0.047545712 -0.23109429 1.161 55 126 184 255
0.050099999 -0.23268667 1.169 55 126 184 255
0.052505717 -0.23348287 1.1730001 55 126 184 255
0.055300001 -0.23587143 1.1850001 55 126 184 255
0.057557143 -0.23587143 1.1850001 55 126 184 255
0.059814289 -0.23587143 1.1850001 55 126 184 255
0.062071431 -0.23587143 1.1850001 55 126 184 255
0.064328574 -0.23587143 1.1850001 55 126 184 255
0.066360958 -0.23507527 1.1810001 55 126 184 255
0.068610482 -0.23507527 1.1810001 55 126 184 255
0.070860006 -0.23507527 1.1810001 55 126 184 255
0.07310953 -0.23507527 1.1810001 55 126 184 255
0.075103812 -0.23427905 1.177 55 126 184 255
0.077345721 -0.23427905 1.177 55 126 184 255
0.079587616 -0.23427905 1.177 55 126 184 255
0.081829526 -0.23427905 1.177 55 126 184 255
0.08378572 -0.23348287 1.1730001 55 126 184 255
0.085726663 -0.23268667 1.169 55 126 184 255
0.087652385 -0.23189048 1.1650001 55 126 184 255
0.089562856 -0.23109429 1.161 55 126 184 255
0.091774285 -0.23109429 1.161 55 126 184 255
0.093985714 -0.23109429 1.161 55 126 184 255
0.095865719 -0.23029812 1.1570001 55 126 184 255
0.098069526 -0.23029812 1.1570001 55 126 184 255
0.099926665 -0.2295019 1.153 55 126 184 255
0.10212285 -0.2295019 1.153 55 126 184 255
0.10431904 -0.2295019 1.153 55 126 184 255
0.10651524 -0.2295019 1.153 55 126 184 255
0.10833429 -0.22870572 1.149 55 126 184 255
0.11052286 -0.22870572 1.149 55 126 184 255
0.11310381 -0.2295019 1.153 55 126 184 255
0.0032942859 -0.22730571 1.153 55 126 184 255
0.0054904758 -0.22730571 1.153 55 126 184 255
0.0076866667 -0.22730571 1.153 55 126 184 255
0.0098828571 -0.22730571 1.153 55 126 184 255
0.012120954 -0.22809429 1.1570001 55 126 184 255
0.014324762 -0.22809429 1.1570001 55 126 184 255
0.016528573 -0.22809429 1.1570001 55 126 184 255
0.018732382 -0.22809429 1.1570001 55 126 184 255
0.020936191 -0.22809429 1.1570001 55 126 184 255
0.023220001 -0.22888285 1.161 55 126 184 255
0.02543143 -0.22888285 1.161 55 126 184 255
0.027642857 -0.22888285 1.161 55 126 184 255
0.029854285 -0.22888285 1.161 55 126 184 255
0.032065712 -0.22888285 1.161 55 126 184 255
0.034277145 -0.22888285 1.161 55 126 184 255
0.03648857 -0.22888285 1.161 55 126 184 255
0.038700003 -0.22888285 1.161 55 126 184 255
0.040911429 -0.22888285 1.161 55 126 184 255
0.043122858 -0.22888285 1.161 55 126 184 255
0.045490477 -0.22967143 1.1650001 55 126 184 255
0.047709528 -0.22967143 1.1650001 55 126 184 255
0.050099999 -0.23046 1.169 55 126 184 255
0.052863814 -0.23282574 1.1810001 55 126 184 255
0.055300001 -0.2336143 1.1850001 55 126 184 255
0.057751428 -0.23440285 1.189 55 126 184 255
0.060016192 -0.23440285 1.189 55 126 184 255
0.062280957 -0.23440285 1.189 55 126 184 255
0.064328574 -0.2336143 1.1850001 55 126 184 255
0.066585712 -0.2336143 1.1850001 55 126 184 255
0.068842858 -0.2336143 1.1850001 55 126 184 255
0.071100004 -0.2336143 1.1850001 55 126 184 255
0.07310953 -0.23282574 1.1810001 55 126 184 255
0.075359054 -0.23282574 1.1810001 55 126 184 255
0.077608578 -0.23282574 1.1810001 55 126 184 255
0.079858102 -0.23282574 1.1810001 55 126 184 255
0.081829526 -0.23203714 1.177 55 126 184 255
0.084071428 -0.23203714 1.177 55 126 184 255
0.086313337 -0.23203714 1.177 55 126 184 255
0.087953337 -0.23046 1.169 55 126 184 255
0.090180002 -0.23046 1.169 55 126 184 255
0.09209048 -0.22967143 1.1650001 55 126 184 255
0.094309531 -0.22967143 1.1650001 55 126 184 255
0.096528575 -0.22967143 1.1650001 55 126 184 255
0.098408572 -0.22888285 1.161 55 126 184 255
0.10027333 -0.22809429 1.1570001 55 126 184 255
0.10247715 -0.22809429 1.1570001 55 126 184 255
0.10431904 -0.22730571 1.153 55 126 184 255
0.10651524 -0.22730571 1.153 55 126 184 255
0.10871143 -0.22730571 1.153 55 126 184 255
0.11090762 -0.22730571 1.153 55 126 184 255
0.11310381 -0.22730571 1.153 55 126 184 255
0.1153 -0.22730571 1.153 55 126 184 255
0.0032942859 -0.22510953 1.153 55 126 184 255
0.0054904758 -0.22510953 1.153 55 126 184 255
0.0076866667 -0.22510953 1.153 55 126 184 255
0.0098828571 -0.22510953 1.153 55 126 184 255
0.012120954 -0.22589049 1.1570001 55 126 184 255
0.014324762 -0.22589049 1.1570001 55 126 184 255
0.016642857 -0.2274524 1.1650001 55 126 184 255
0.018861907 -0.2274524 1.1650001 55 126 184 255
0.021080954 -0.2274524 1.1650001 55 126 184 255
0.02338 -0.22823334 1.169 55 126 184 255
0.025606668 -0.22823334 1.169 55 126 184 255
0.027833333 -0.22823334 1.169 55 126 184 255
0.029957144 -0.2274524 1.1650001 55 126 184 255
0.032176193 -0.2274524 1.1650001 55 126 184 255
0.03439524 -0.2274524 1.1650001 55 126 184 255
0.036614288 -0.2274524 1.1650001 55 126 184 255
0.038833335 -0.2274524 1.1650001 55 126 184 255
0.041052382 -0.2274524 1.1650001 55 126 184 255
0.04327143 -0.2274524 1.1650001 55 126 184 255
0.045646667 -0.22823334 1.169 55 126 184 255
0.047873333 -0.22823334 1.169 55 126 184 255
0.050271433 -0.22901431 1.1730001 55 126 184 255
0.053042859 -0.23135716 1.1850001 55 126 184 255
0.055673338 -0.23291907 1.1930001 55 126 184 255
0.057945717 -0.23291907 1.1930001 55 126 184 255
0.060016192 -0.23213808 1.189 55 126 184 255
0.062280957 -0.23213808 1.189 55 126 184 255
0.064545713 -0.23213808 1.189 55 126 184 255
0.066810474 -0.23213808 1.189 55 126 184 255
0.068842858 -0.23135716 1.1850001 55 126 184 255
0.071100004 -0.23135716 1.1850001 55 126 184 255
0.073357143 -0.23135716 1.1850001 55 126 184 255
0.075614288 -0.23135716 1.1850001 55 126 184 255
0.077871434 -0.23135716 1.1850001 55 126 184 255
0.080128573 -0.23135716 1.1850001 55 126 184 255
0.082107626 -0.23057622 1.1810001 55 126 184 255
0.08435715 -0.23057622 1.1810001 55 126 184 255
0.086606674 -0.23057622 1.1810001 55 126 184 255
0.088856198 -0.23057622 1.1810001 55 126 184 255
0.090797149 -0.22979523 1.177 55 126 184 255
0.093039051 -0.22979523 1.177 55 126 184 255
0.094633341 -0.22823334 1.169 55 126 184 255
0.096859999 -0.22823334 1.169 55 126 184 255
0.098747626 -0.2274524 1.1650001 55 126 184 255
0.10096667 -0.2274524 1.1650001 55 126 184 255
0.10247715 -0.22589049 1.1570001 55 126 184 255
0.10468096 -0.22589049 1.1570001 55 126 184 255
0.10688476 -0.22589049 1.1570001 55 126 184 255
0.10871143 -0.22510953 1.153 55 126 184 255
0.11090762 -0.22510953 1.153 55 126 184 255
0.11310381 -0.22510953 1.153 55 126 184 255
0.1153 -0.22510953 1.153 55 126 184 255
0.11749619 -0.22510953 1.153 55 126 184 255
0.0010980952 -0.22291334 1.153 55 126 184 255
0.0032942859 -0.22291334 1.153 55 126 184 255
0.0054904758 -0.22291334 1.153 55 126 184 255
0.0076866667 -0.22291334 1.153 55 126 184 255
0.0099171428 -0.22368668 1.1570001 55 126 184 255
0.012162857 -0.22445999 1.161 55 126 184 255
0.014522858 -0.22678001 1.1730001 55 126 184 255
0.016757144 -0.22678001 1.1730001 55 126 184 255
0.018991429 -0.22678001 1.1730001 55 126 184 255
0.021298096 -0.22755334 1.177 55 126 184 255
0.023620002 -0.22832669 1.1810001 55 126 184 255
0.025869526 -0.22832669 1.1810001 55 126 184 255
0.028023811 -0.22755334 1.177 55 126 184 255
0.03016286 -0.22678001 1.1730001 55 126 184 255
0.032176193 -0.22523335 1.1650001 55 126 184 255
0.03439524 -0.22523335 1.1650001 55 126 184 255
0.036614288 -0.22523335 1.1650001 55 126 184 255
0.038833335 -0.22523335 1.1650001 55 126 184 255
0.041052382 -0.22523335 1.1650001 55 126 184 255
0.043419998 -0.22600667 1.169 55 126 184 255
0.045646667 -0.22600667 1.169 55 126 184 255
0.048037145 -0.22678001 1.1730001 55 126 184 255
0.050785717 -0.2291 1.1850001 55 126 184 255
0.053580001 -0.23142001 1.197 55 126 184 255
0.055859998 -0.23142001 1.197 55 126 184 255
0.058139998 -0.23142001 1.197 55 126 184 255
0.060420003 -0.23142001 1.197 55 126 184 255
0.062490482 -0.23064668 1.1930001 55 126 184 255
0.064762861 -0.23064668 1.1930001 55 126 184 255
0.067035235 -0.23064668 1.1930001 55 126 184 255
0.069075234 -0.22987333 1.189 55 126 184 255
0.071339995 -0.22987333 1.189 55 126 184 255
0.073604763 -0.22987333 1.189 55 126 184 255
0.075869523 -0.22987333 1.189 55 126 184 255
0.078134283 -0.22987333 1.189 55 126 184 255
0.080399044 -0.22987333 1.189 55 126 184 255
0.082385719 -0.2291 1.1850001 55 126 184 255
0.084642865 -0.2291 1.1850001 55 126 184 255
0.086900003 -0.2291 1.1850001 55 126 184 255
0.088856198 -0.22832669 1.1810001 55 126 184 255
0.091105722 -0.22832669 1.1810001 55 126 184 255
0.093355246 -0.22832669 1.1810001 55 126 184 255
0.094957151 -0.22678001 1.1730001 55 126 184 255
0.097191438 -0.22678001 1.1730001 55 126 184 255
0.099086665 -0.22600667 1.169 55 126 184 255
0.10131334 -0.22600667 1.169 55 126 184 255
0.10318572 -0.22523335 1.1650001 55 126 184 255
0.10504285 -0.22445999 1.161 55 126 184 255
0.10688476 -0.22368668 1.1570001 55 126 184 255
0.10908858 -0.22368668 1.1570001 55 126 184 255
0.11090762 -0.22291334 1.153 55 126 184 255
0.11310381 -0.22291334 1.153 55 126 184 255
0.1153 -0.22291334 1.153 55 126 184 255
0.11749619 -0.22291334 1.153 55 126 184 255
0.11969239 -0.22291334 1.153 55 126 184 255
-0.0010942857 -0.21995144 1.149 55 126 184 255
0.0010942857 -0.21995144 1.149 55 126 184 255
0.0032942859 -0.22071715 1.153 55 126 184 255
0.0054904758 -0.22071715 1.153 55 126 184 255
0.0077133342 -0.22148286 1.1570001 55 126 184 255
0.0099514285 -0.22224857 1.161 55 126 184 255
0.012246666 -0.22378001 1.169 55 126 184 255
0.014522858 -0.22454573 1.1730001 55 126 184 255
0.016814286 -0.22531144 1.177 55 126 184 255
0.019056192 -0.22531144 1.177 55 126 184 255
0.021370478 -0.22607717 1.1810001 55 126 184 255
0.023620002 -0.22607717 1.1810001 55 126 184 255
0.025957143 -0.22684287 1.1850001 55 126 184 255
0.02811905 -0.22607717 1.1810001 55 126 184 255
0.030368574 -0.22607717 1.1810001 55 126 184 255
0.032397144 -0.22454573 1.1730001 55 126 184 255
0.034513336 -0.22378001 1.169 55 126 184 255
0.036739998 -0.22378001 1.169 55 126 184 255
0.038966667 -0.22378001 1.169 55 126 184 255
0.041193336 -0.22378001 1.169 55 126 184 255
0.043568578 -0.22454573 1.1730001 55 126 184 255
0.046583813 -0.2283743 1.1930001 55 126 184 255
0.048856195 -0.2283743 1.1930001 55 126 184 255
0.0513 -0.22914 1.197 55 126 184 255
0.053580001 -0.22914 1.197 55 126 184 255
0.056093335 -0.23009714 1.202 55 126 184 255
0.058382858 -0.23009714 1.202 55 126 184 255
0.06067238 -0.23009714 1.202 55 126 184 255
0.062699996 -0.22914 1.197 55 126 184 255
0.06498 -0.22914 1.197 55 126 184 255
0.067259997 -0.22914 1.197 55 126 184 255
0.069307618 -0.2283743 1.1930001 55 126 184 255
0.07158 -0.2283743 1.1930001 55 126 184 255
0.073852383 -0.2283743 1.1930001 55 126 184 255
0.076124765 -0.2283743 1.1930001 55 126 184 255
0.078397147 -0.2283743 1.1930001 55 126 184 255
0.080669522 -0.2283743 1.1930001 55 126 184 255
0.082941905 -0.2283743 1.1930001 55 126 184 255
0.084928572 -0.22760856 1.189 55 126 184 255
0.087193333 -0.22760856 1.189 55 126 184 255
0.089157149 -0.22684287 1.1850001 55 126 184 255
0.091414295 -0.22684287 1.1850001 55 126 184 255
0.093355246 -0.22607717 1.1810001 55 126 184 255
0.09528096 -0.22531144 1.177 55 126 184 255
0.097191438 -0.22454573 1.1730001 55 126 184 255
0.099425726 -0.22454573 1.1730001 55 126 184 255
0.10131334 -0.22378001 1.169 55 126 184 255
0.10318572 -0.22301431 1.1650001 55 126 184 255
0.10540477 -0.22301431 1.1650001 55 126 184 255
0.10725429 -0.22224857 1.161 55 126 184 255
0.10908858 -0.22148286 1.1570001 55 126 184 255
0.11090762 -0.22071715 1.153 55 126 184 255
0.11310381 -0.22071715 1.153 55 126 184 255
0.1153 -0.22071715 1.153 55 126 184 255
0.11708858 -0.21995144 1.149 55 126 184 255
0.11927715 -0.21995144 1.149 55 126 184 255
-0.0010942857 -0.21776287 1.149 55 126 184 255
0.0010942857 -0.21776287 1.149 55 126 184 255
0.0032942859 -0.21852095 1.153 55 126 184 255
0.0055095241 -0.21927905 1.1570001 55 126 184 255
0.0077133342 -0.21927905 1.1570001 55 126 184 255
0.0099857152 -0.22079526 1.1650001 55 126 184 255
0.012246666 -0.22155334 1.169 55 126 184 255
0.014572381 -0.22306953 1.177 55 126 184 255
0.01687143 -0.22382765 1.1810001 55 126 184 255
0.019120954 -0.22382765 1.1810001 55 126 184 255
0.021442859 -0.22458573 1.1850001 55 126 184 255
0.023700003 -0.22458573 1.1850001 55 126 184 255
0.026132382 -0.22610192 1.1930001 55 126 184 255
0.028404765 -0.22610192 1.1930001 55 126 184 255
0.030677145 -0.22610192 1.1930001 55 126 184 255
0.032949526 -0.22610192 1.1930001 55 126 184 255
0.035487618 -0.22780761 1.202 55 126 184 255
0.037777144 -0.22780761 1.202 55 126 184 255
0.040066667 -0.22780761 1.202 55 126 184 255
0.042356189 -0.22780761 1.202 55 126 184 255
0.044645716 -0.22780761 1.202 55 126 184 255
0.046935238 -0.22780761 1.202 55 126 184 255
0.04922476 -0.22780761 1.202 55 126 184 255
0.051514287 -0.22780761 1.202 55 126 184 255
0.053803809 -0.22780761 1.202 55 126 184 255
0.056093335 -0.22780761 1.202 55 126 184 255
0.058382858 -0.22780761 1.202 55 126 184 255
0.06067238 -0.22780761 1.202 55 126 184 255
0.062961906 -0.22780761 1.202 55 126 184 255
0.065251425 -0.22780761 1.202 55 126 184 255
0.067259997 -0.22686 1.197 55 126 184 255
0.069539994 -0.22686 1.197 55 126 184 255
0.071820006 -0.22686 1.197 55 126 184 255
0.074100003 -0.22686 1.197 55 126 184 255
0.076380007 -0.22686 1.197 55 126 184 255
0.078660004 -0.22686 1.197 55 126 184 255
0.080940001 -0.22686 1.197 55 126 184 255
0.083220005 -0.22686 1.197 55 126 184 255
0.085214287 -0.22610192 1.1930001 55 126 184 255
0.087193333 -0.22534381 1.189 55 126 184 255
0.089458093 -0.22534381 1.189 55 126 184 255
0.091414295 -0.22458573 1.1850001 55 126 184 255
0.093355246 -0.22382765 1.1810001 55 126 184 255
0.09528096 -0.22306953 1.177 55 126 184 255
0.097191438 -0.22231144 1.1730001 55 126 184 255
0.099425726 -0.22231144 1.1730001 55 126 184 255
0.10166001 -0.22231144 1.1730001 55 126 184 255
0.10354 -0.22155334 1.169 55 126 184 255
0.10540477 -0.22079526 1.1650001 55 126 184 255
0.10725429 -0.22003715 1.161 55 126 184 255
0.10908858 -0.21927905 1.1570001 55 126 184 255
0.11090762 -0.21852095 1.153 55 126 184 255
0.11310381 -0.21852095 1.153 55 126 184 255
0.1153 -0.21852095 1.153 55 126 184 255
0.11708858 -0.21776287 1.149 55 126 184 255
0.11927715 -0.21776287 1.149 55 126 184 255
-0.0032828571 -0.21557429 1.149 55 126 184 255
-0.0010942857 -0.21557429 1.149 55 126 184 255
0.0010942857 -0.21557429 1.149 55 126 184 255
0.0032942859 -0.21632476 1.153 55 126 184 255
0.0055095241 -0.21707526 1.1570001 55 126 184 255
0.0077666673 -0.21857621 1.1650001 55 126 184 255
0.01002 -0.21932666 1.169 55 126 184 255
0.012288572 -0.22007716 1.1730001 55 126 184 255
0.014621906 -0.22157812 1.1810001 55 126 184 255
0.016928572 -0.22232857 1.1850001 55 126 184 255
0.019250475 -0.22307904 1.189 55 126 184 255
0.021515237 -0.22307904 1.189 55 126 184 255
0.023860002 -0.22382954 1.1930001 55 126 184 255
0.026132382 -0.22382954 1.1930001 55 126 184 255
0.028404765 -0.22382954 1.1930001 55 126 184 255
0.030780001 -0.22458 1.197 55 126 184 255
0.033198096 -0.22551809 1.202 55 126 184 255
0.035487618 -0.22551809 1.202 55 126 184 255
0.037777144 -0.22551809 1.202 55 126 184 255
0.040066667 -0.22551809 1.202 55 126 184 255
0.042356189 -0.22551809 1.202 55 126 184 255
0.044645716 -0.22551809 1.202 55 126 184 255
0.046935238 -0.22551809 1.202 55 126 184 255
0.04922476 -0.22551809 1.202 55 126 184 255
0.051514287 -0.22551809 1.202 55 126 184 255
0.053803809 -0.22551809 1.202 55 126 184 255
0.056093335 -0.22551809 1.202 55 126 184 255
0.058382858 -0.22551809 1.202 55 126 184 255
0.06067238 -0.22551809 1.202 55 126 184 255
0.062961906 -0.22551809 1.202 55 126 184 255
0.065251425 -0.22551809 1.202 55 126 184 255
0.067540951 -0.22551809 1.202 55 126 184 255
0.069830477 -0.22551809 1.202 55 126 184 255
0.072119996 -0.22551809 1.202 55 126 184 255
0.07440953 -0.22551809 1.202 55 126 184 255
0.076699048 -0.22551809 1.202 55 126 184 255
0.078660004 -0.22458 1.197 55 126 184 255
0.080940001 -0.22458 1.197 55 126 184 255
0.083220005 -0.22458 1.197 55 126 184 255
0.085500002 -0.22458 1.197 55 126 184 255
0.087779999 -0.22458 1.197 55 126 184 255
0.089759052 -0.22382954 1.1930001 55 126 184 255
0.091722853 -0.22307904 1.189 55 126 184 255
0.093355246 -0.22157812 1.1810001 55 126 184 255
0.09560477 -0.22157812 1.1810001 55 126 184 255
0.097522855 -0.22082762 1.177 55 126 184 255
0.099764764 -0.22082762 1.177 55 126 184 255
0.10200667 -0.22082762 1.177 55 126 184 255
0.10389429 -0.22007716 1.1730001 55 126 184 255
0.10576667 -0.21932666 1.169 55 126 184 255
0.10762382 -0.21857621 1.1650001 55 126 184 255
0.10908858 -0.21707526 1.1570001 55 126 184 255
0.11090762 -0.21632476 1.153 55 126 184 255
0.11310381 -0.21632476 1.153 55 126 184 255
0.1153 -0.21632476 1.153 55 126 184 255
0.11708858 -0.21557429 1.149 55 126 184 255
0.11927715 -0.21557429 1.149 55 126 184 255
-0.0054523814 -0.21264288 1.1450001 55 126 184 255
-0.0032714289 -0.21264288 1.1450001 55 126 184 255
-0.0010904763 -0.21264288 1.1450001 55 126 184 255
0.0010942857 -0.21338572 1.149 55 126 184 255
0.0032942859 -0.21412857 1.153 55 126 184 255
0.0055285715 -0.21561429 1.161 55 126 184 255
0.0078199999 -0.21784288 1.1730001 55 126 184 255
0.010122858 -0.2193286 1.1810001 55 126 184 255
0.012414286 -0.22007143 1.1850001 55 126 184 255
0.014720952 -0.22081427 1.189 55 126 184 255
0.016985714 -0.22081427 1.189 55 126 184 255
0.019315239 -0.22155716 1.1930001 55 126 184 255
0.02158762 -0.22155716 1.1930001 55 126 184 255
0.023940001 -0.22230001 1.197 55 126 184 255
0.026219999 -0.22230001 1.197 55 126 184 255
0.0285 -0.22230001 1.197 55 126 184 255
0.030908573 -0.22322857 1.202 55 126 184 255
0.033198096 -0.22322857 1.202 55 126 184 255
0.035605714 -0.22397144 1.2060001 55 126 184 255
0.037902862 -0.22397144 1.2060001 55 126 184 255
0.040200002 -0.22397144 1.2060001 55 126 184 255
0.042356189 -0.22322857 1.202 55 126 184 255
0.044645716 -0.22322857 1.202 55 126 184 255
0.046935238 -0.22322857 1.202 55 126 184 255
0.04922476 -0.22322857 1.202 55 126 184 255
0.051514287 -0.22322857 1.202 55 126 184 255
0.053803809 -0.22322857 1.202 55 126 184 255
0.056093335 -0.22322857 1.202 55 126 184 255
0.058382858 -0.22322857 1.202 55 126 184 255
0.060874287 -0.22397144 1.2060001 55 126 184 255
0.063171431 -0.22397144 1.2060001 55 126 184 255
0.065468572 -0.22397144 1.2060001 55 126 184 255
0.067540951 -0.22322857 1.202 55 126 184 255
0.069830477 -0.22322857 1.202 55 126 184 255
0.072119996 -0.22322857 1.202 55 126 184 255
0.07440953 -0.22322857 1.202 55 126 184 255
0.076699048 -0.22322857 1.202 55 126 184 255
0.078988574 -0.22322857 1.202 55 126 184 255
0.081278101 -0.22322857 1.202 55 126 184 255
0.083567619 -0.22322857 1.202 55 126 184 255
0.085857145 -0.22322857 1.202 55 126 184 255
0.087779999 -0.22230001 1.197 55 126 184 255
0.090060003 -0.22230001 1.197 55 126 184 255
0.092031434 -0.22155716 1.1930001 55 126 184 255
0.093671434 -0.22007143 1.1850001 55 126 184 255
0.09560477 -0.2193286 1.1810001 55 126 184 255
0.097854294 -0.2193286 1.1810001 55 126 184 255
0.10010382 -0.2193286 1.1810001 55 126 184 255
0.10235334 -0.2193286 1.1810001 55 126 184 255
0.10424858 -0.21858573 1.177 55 126 184 255
0.10612858 -0.21784288 1.1730001 55 126 184 255
0.10799333 -0.21709999 1.169 55 126 184 255
0.10946572 -0.21561429 1.161 55 126 184 255
0.11129239 -0.21487144 1.1570001 55 126 184 255
0.11349619 -0.21487144 1.1570001 55 126 184 255
0.1153 -0.21412857 1.153 55 126 184 255
0.11708858 -0.21338572 1.149 55 126 184 255
0.11927715 -0.21338572 1.149 55 126 184 255
0.12146572 -0.21338572 1.149 55 126 184 255
-0.011921904 -0.20917524 1.138 55 126 184 255
-0.0097542861 -0.20917524 1.138 55 126 184 255
-0.0075866668 -0.20917524 1.138 55 126 184 255
-0.0054190475 -0.20917524 1.138 55 126 184 255
-0.0032514285 -0.20917524 1.138 55 126 184 255
-0.0010838095 -0.20917524 1.138 55 126 184 255
0.0010838095 -0.20917524 1.138 55 126 184 255
0.0033285718 -0.21413811 1.1650001 55 126 184 255
0.0055857147 -0.2156086 1.1730001 55 126 184 255
0.007873334 -0.21707907 1.1810001 55 126 184 255
0.010191428 -0.21854952 1.189 55 126 184 255
0.012456191 -0.21854952 1.189 55 126 184 255
0.014770477 -0.21928477 1.1930001 55 126 184 255
0.017042857 -0.21928477 1.1930001 55 126 184 255
0.019315239 -0.21928477 1.1930001 55 126 184 255
0.02166 -0.22002001 1.197 55 126 184 255
0.023940001 -0.22002001 1.197 55 126 184 255
0.026219999 -0.22002001 1.197 55 126 184 255
0.0285 -0.22002001 1.197 55 126 184 255
0.030908573 -0.22093906 1.202 55 126 184 255
0.033198096 -0.22093906 1.202 55 126 184 255
0.035605714 -0.22167429 1.2060001 55 126 184 255
0.037902862 -0.22167429 1.2060001 55 126 184 255
0.040200002 -0.22167429 1.2060001 55 126 184 255
0.042497143 -0.22167429 1.2060001 55 126 184 255
0.044794288 -0.22167429 1.2060001 55 126 184 255
0.046935238 -0.22093906 1.202 55 126 184 255
0.04922476 -0.22093906 1.202 55 126 184 255
0.051685717 -0.22167429 1.2060001 55 126 184 255
0.053982858 -0.22167429 1.2060001 55 126 184 255
0.056280006 -0.22167429 1.2060001 55 126 184 255
0.058577146 -0.22167429 1.2060001 55 126 184 255
0.060874287 -0.22167429 1.2060001 55 126 184 255
0.063171431 -0.22167429 1.2060001 55 126 184 255
0.065468572 -0.22167429 1.2060001 55 126 184 255
0.067540951 -0.22093906 1.202 55 126 184 255
0.069830477 -0.22093906 1.202 55 126 184 255
0.072119996 -0.22093906 1.202 55 126 184 255
0.07440953 -0.22093906 1.202 55 126 184 255
0.076699048 -0.22093906 1.202 55 126 184 255
0.078988574 -0.22093906 1.202 55 126 184 255
0.081278101 -0.22093906 1.202 55 126 184 255
0.083567619 -0.22093906 1.202 55 126 184 255
0.085857145 -0.22093906 1.202 55 126 184 255
0.088146664 -0.22093906 1.202 55 126 184 255
0.090060003 -0.22002001 1.197 55 126 184 255
0.09234 -0.22002001 1.197 55 126 184 255
0.093987621 -0.21854952 1.189 55 126 184 255
0.09592858 -0.2178143 1.1850001 55 126 184 255
0.098185718 -0.2178143 1.1850001 55 126 184 255
0.10044286 -0.2178143 1.1850001 55 126 184 255
0.10235334 -0.21707907 1.1810001 55 126 184 255
0.10424858 -0.21634382 1.177 55 126 184 255
0.10649048 -0.21634382 1.177 55 126 184 255
0.10836286 -0.2156086 1.1730001 55 126 184 255
0.10984286 -0.21413811 1.1650001 55 126 184 255
0.11129239 -0.21266763 1.1570001 55 126 184 255
0.11349619 -0.21266763 1.1570001 55 126 184 255
0.1153 -0.21193239 1.153 55 126 184 255
0.11749619 -0.21193239 1.153 55 126 184 255
0.11927715 -0.21119714 1.149 55 126 184 255
0.12146572 -0.21119714 1.149 55 126 184 255
0.12365429 -0.21119714 1.149 55 126 184 255
-0.011880001 -0.20628001 1.1340001 55 126 184 255
-0.0097200004 -0.20628001 1.1340001 55 126 184 255
-0.0075600008 -0.20628001 1.1340001 55 126 184 255
-0.0054000001 -0.20628001 1.1340001 55 126 184 255
-0.0032400002 -0.20628001 1.1340001 55 126 184 255
-0.0010800001 -0.20628001 1.1340001 55 126 184 255
0.0010838095 -0.20700762 1.138 55 126 184 255
0.0033971427 -0.21628475 1.189 55 126 184 255
0.0056619048 -0.21628475 1.189 55 126 184 255
0.0079533337 -0.21701241 1.1930001 55 126 184 255
0.010225714 -0.21701241 1.1930001 55 126 184 255
0.012498097 -0.21701241 1.1930001 55 126 184 255
0.014770477 -0.21701241 1.1930001 55 126 184 255
0.017042857 -0.21701241 1.1930001 55 126 184 255
0.019380001 -0.21774 1.197 55 126 184 255
0.02166 -0.21774 1.197 55 126 184 255
0.023940001 -0.21774 1.197 55 126 184 255
0.026329523 -0.21864952 1.202 55 126 184 255
0.028619049 -0.21864952 1.202 55 126 184 255
0.030908573 -0.21864952 1.202 55 126 184 255
0.033308573 -0.21937716 1.2060001 55 126 184 255
0.035605714 -0.21937716 1.2060001 55 126 184 255
0.037902862 -0.21937716 1.2060001 55 126 184 255
0.040200002 -0.21937716 1.2060001 55 126 184 255
0.042497143 -0.21937716 1.2060001 55 126 184 255
0.044794288 -0.21937716 1.2060001 55 126 184 255
0.047091432 -0.21937716 1.2060001 55 126 184 255
0.049388576 -0.21937716 1.2060001 55 126 184 255
0.051685717 -0.21937716 1.2060001 55 126 184 255
0.053982858 -0.21937716 1.2060001 55 126 184 255
0.056280006 -0.21937716 1.2060001 55 126 184 255
0.058771431 -0.22010475 1.21 55 126 184 255
0.061076194 -0.22010475 1.21 55 126 184 255
0.063380957 -0.22010475 1.21 55 126 184 255
0.065468572 -0.21937716 1.2060001 55 126 184 255
0.067540951 -0.21864952 1.202 55 126 184 255
0.069830477 -0.21864952 1.202 55 126 184 255
0.072360002 -0.21937716 1.2060001 55 126 184 255
0.07440953 -0.21864952 1.202 55 126 184 255
0.076699048 -0.21864952 1.202 55 126 184 255
0.078988574 -0.21864952 1.202 55 126 184 255
0.081278101 -0.21864952 1.202 55 126 184 255
0.083567619 -0.21864952 1.202 55 126 184 255
0.085857145 -0.21864952 1.202 55 126 184 255
0.088146664 -0.21864952 1.202 55 126 184 255
0.09043619 -0.21864952 1.202 55 126 184 255
0.09234 -0.21774 1.197 55 126 184 255
0.093987621 -0.21628475 1.189 55 126 184 255
0.09592858 -0.21555714 1.1850001 55 126 184 255
0.098185718 -0.21555714 1.1850001 55 126 184 255
0.10044286 -0.21555714 1.1850001 55 126 184 255
0.1027 -0.21555714 1.1850001 55 126 184 255
0.10460287 -0.21482953 1.1810001 55 126 184 255
0.10685239 -0.21482953 1.1810001 55 126 184 255
0.10873239 -0.21410191 1.177 55 126 184 255
0.11059715 -0.2133743 1.1730001 55 126 184 255
0.11206191 -0.21191905 1.1650001 55 126 184 255
0.11388857 -0.21119143 1.161 55 126 184 255
0.11570001 -0.21046382 1.1570001 55 126 184 255
0.11749619 -0.20973618 1.153 55 126 184 255
0.11927715 -0.20900859 1.149 55 126 184 255
0.12146572 -0.20900859 1.149 55 126 184 255
0.12365429 -0.20900859 1.149 55 126 184 255
0.12584287 -0.20900859 1.149 55 126 184 255
-0.014040001 -0.20412001 1.1340001 55 126 184 255
-0.011880001 -0.20412001 1.1340001 55 126 184 255
-0.0097200004 -0.20412001 1.1340001 55 126 184 255
-0.0075600008 -0.20412001 1.1340001 55 126 184 255
-0.0054000001 -0.20412001 1.1340001 55 126 184 255
-0.0032400002 -0.20412001 1.1340001 55 126 184 255
-0.0010800001 -0.20412001 1.1340001 55 126 184 255
0.0011400001 -0.21546 1.197 55 126 184 255
0.00342 -0.21546 1.197 55 126 184 255
0.0056809527 -0.21474002 1.1930001 55 126 184 255
0.0079533337 -0.21474002 1.1930001 55 126 184 255
0.010225714 -0.21474002 1.1930001 55 126 184 255
0.01254 -0.21546 1.197 55 126 184 255
0.014820001 -0.21546 1.197 55 126 184 255
0.017099999 -0.21546 1.197 55 126 184 255
0.019380001 -0.21546 1.197 55 126 184 255
0.02166 -0.21546 1.197 55 126 184 255
0.023940001 -0.21546 1.197 55 126 184 255
0.026329523 -0.21636 1.202 55 126 184 255
0.028619049 -0.21636 1.202 55 126 184 255
0.030908573 -0.21636 1.202 55 126 184 255
0.033308573 -0.21708001 1.2060001 55 126 184 255
0.035605714 -0.21708001 1.2060001 55 126 184 255
0.037902862 -0.21708001 1.2060001 55 126 184 255
0.040200002 -0.21708001 1.2060001 55 126 184 255
0.042497143 -0.21708001 1.2060001 55 126 184 255
0.044794288 -0.21708001 1.2060001 55 126 184 255
0.047091432 -0.21708001 1.2060001 55 126 184 255
0.049388576 -0.21708001 1.2060001 55 126 184 255
0.051857144 -0.21780001 1.21 55 126 184 255
0.054161906 -0.21780001 1.21 55 126 184 255
0.056466665 -0.21780001 1.21 55 126 184 255
0.058771431 -0.21780001 1.21 55 126 184 255
0.061076194 -0.21780001 1.21 55 126 184 255
0.063380957 -0.21780001 1.21 55 126 184 255
0.065468572 -0.21708001 1.2060001 55 126 184 255
0.06776572 -0.21708001 1.2060001 55 126 184 255
0.070062861 -0.21708001 1.2060001 55 126 184 255
0.072360002 -0.21708001 1.2060001 55 126 184 255
0.07465715 -0.21708001 1.2060001 55 126 184 255
0.076954298 -0.21708001 1.2060001 55 126 184 255
0.079251431 -0.21708001 1.2060001 55 126 184 255
0.081548579 -0.21708001 1.2060001 55 126 184 255
0.08384572 -0.21708001 1.2060001 55 126 184 255
0.08614286 -0.21708001 1.2060001 55 126 184 255
0.088146664 -0.21636 1.202 55 126 184 255
0.09043619 -0.21636 1.202 55 126 184 255
0.092725717 -0.21636 1.202 55 126 184 255
0.094620004 -0.21546 1.197 55 126 184 255
0.096900001 -0.21546 1.197 55 126 184 255
0.098848581 -0.21474002 1.1930001 55 126 184 255
0.10112096 -0.21474002 1.1930001 55 126 184 255
0.10304666 -0.21402 1.189 55 126 184 255
0.10495715 -0.2133 1.1850001 55 126 184 255
0.10721429 -0.2133 1.1850001 55 126 184 255
0.10910191 -0.21258001 1.1810001 55 126 184 255
0.11135144 -0.21258001 1.1810001 55 126 184 255
0.1132162 -0.21186 1.177 55 126 184 255
0.11467334 -0.21042001 1.169 55 126 184 255
0.11570001 -0.20826001 1.1570001 55 126 184 255
0.11749619 -0.20753999 1.153 55 126 184 255
0.11969239 -0.20753999 1.153 55 126 184 255
0.12146572 -0.20682001 1.149 55 126 184 255
0.12365429 -0.20682001 1.149 55 126 184 255
0.12584287 -0.20682001 1.149 55 126 184 255
-0.014040001 -0.20196001 1.1340001 55 126 184 255
-0.011880001 -0.20196001 1.1340001 55 126 184 255
-0.0097200004 -0.20196001 1.1340001 55 126 184 255
-0.0075866668 -0.20267238 1.138 55 126 184 255
-0.0054000001 -0.20196001 1.1340001 55 126 184 255
-0.0032285713 -0.20124762 1.13 55 126 184 255
-0.0010761905 -0.20124762 1.13 55 126 184 255
0.0011400001 -0.21318001 1.197 55 126 184 255
0.00342 -0.21318001 1.197 55 126 184 255
0.0057000001 -0.21318001 1.197 55 126 184 255
0.0079799993 -0.21318001 1.197 55 126 184 255
0.010260001 -0.21318001 1.197 55 126 184 255
0.01254 -0.21318001 1.197 55 126 184 255
0.014881905 -0.21407047 1.202 55 126 184 255
0.017171429 -0.21407047 1.202 55 126 184 255
0.019460952 -0.21407047 1.202 55 126 184 255
0.021750478 -0.21407047 1.202 55 126 184 255
0.024040001 -0.21407047 1.202 55 126 184 255
0.026417146 -0.21478288 1.2060001 55 126 184 255
0.028714286 -0.21478288 1.2060001 55 126 184 255
0.031011432 -0.21478288 1.2060001 55 126 184 255
0.033419047 -0.21549524 1.21 55 126 184 255
0.035723813 -0.21549524 1.21 55 126 184 255
0.037902862 -0.21478288 1.2060001 55 126 184 255
0.040200002 -0.21478288 1.2060001 55 126 184 255
0.042638097 -0.21549524 1.21 55 126 184 255
0.04494286 -0.21549524 1.21 55 126 184 255
0.047091432 -0.21478288 1.2060001 55 126 184 255
0.049388576 -0.21478288 1.2060001 55 126 184 255
0.051857144 -0.21549524 1.21 55 126 184 255
0.053982858 -0.21478288 1.2060001 55 126 184 255
0.056280006 -0.21478288 1.2060001 55 126 184 255
0.058771431 -0.21549524 1.21 55 126 184 255
0.061076194 -0.21549524 1.21 55 126 184 255
0.063380957 -0.21549524 1.21 55 126 184 255
0.065685712 -0.21549524 1.21 55 126 184 255
0.06776572 -0.21478288 1.2060001 55 126 184 255
0.070062861 -0.21478288 1.2060001 55 126 184 255
0.072360002 -0.21478288 1.2060001 55 126 184 255
0.07465715 -0.21478288 1.2060001 55 126 184 255
0.076954298 -0.21478288 1.2060001 55 126 184 255
0.079251431 -0.21478288 1.2060001 55 126 184 255
0.081548579 -0.21478288 1.2060001 55 126 184 255
0.08384572 -0.21478288 1.2060001 55 126 184 255
0.08614286 -0.21478288 1.2060001 55 126 184 255
0.088146664 -0.21407047 1.202 55 126 184 255
0.09043619 -0.21407047 1.202 55 126 184 255
0.092725717 -0.21407047 1.202 55 126 184 255
0.095015235 -0.21407047 1.202 55 126 184 255
0.096900001 -0.21318001 1.197 55 126 184 255
0.099179998 -0.21318001 1.197 55 126 184 255
0.10146 -0.21318001 1.197 55 126 184 255
0.10339334 -0.21246764 1.1930001 55 126 184 255
0.10531143 -0.21175523 1.189 55 126 184 255
0.10721429 -0.21104287 1.1850001 55 126 184 255
0.10947143 -0.21104287 1.1850001 55 126 184 255
0.11135144 -0.21033049 1.1810001 55 126 184 255
0.11360096 -0.21033049 1.1810001 55 126 184 255
0.11545809 -0.20961811 1.177 55 126 184 255
0.11650001 -0.20748097 1.1650001 55 126 184 255
0.11749619 -0.2053438 1.153 55 126 184 255
0.11969239 -0.2053438 1.153 55 126 184 255
0.12146572 -0.20463143 1.149 55 126 184 255
0.12365429 -0.20463143 1.149 55 126 184 255
0.12584287 -0.20463143 1.149 55 126 184 255
-0.016257143 -0.20050476 1.138 55 126 184 255
-0.014089524 -0.20050476 1.138 55 126 184 255
-0.011921904 -0.20050476 1.138 55 126 184 255
-0.0097542861 -0.20050476 1.138 55 126 184 255
-0.0075866668 -0.20050476 1.138 55 126 184 255
-0.0054000001 -0.1998 1.1340001 55 126 184 255
-0.0032285713 -0.19909523 1.13 55 126 184 255
-0.0010761905 -0.19909523 1.13 55 126 184 255
0.0011400001 -0.21090001 1.197 55 126 184 255
0.00342 -0.21090001 1.197 55 126 184 255
0.0057000001 -0.21090001 1.197 55 126 184 255
0.0079799993 -0.21090001 1.197 55 126 184 255
0.010260001 -0.21090001 1.197 55 126 184 255
0.01254 -0.21090001 1.197 55 126 184 255
0.014881905 -0.21178097 1.202 55 126 184 255
0.017171429 -0.21178097 1.202 55 126 184 255
0.019460952 -0.21178097 1.202 55 126 184 255
0.021750478 -0.21178097 1.202 55 126 184 255
0.024120001 -0.21248573 1.2060001 55 126 184 255
0.026417146 -0.21248573 1.2060001 55 126 184 255
0.028714286 -0.21248573 1.2060001 55 126 184 255
0.031114288 -0.21319048 1.21 55 126 184 255
0.033419047 -0.21319048 1.21 55 126 184 255
0.035723813 -0.21319048 1.21 55 126 184 255
0.038028572 -0.21319048 1.21 55 126 184 255
0.040333334 -0.21319048 1.21 55 126 184 255
0.042638097 -0.21319048 1.21 55 126 184 255
0.04494286 -0.21319048 1.21 55 126 184 255
0.047091432 -0.21248573 1.2060001 55 126 184 255
0.049388576 -0.21248573 1.2060001 55 126 184 255
0.051857144 -0.21319048 1.21 55 126 184 255
0.053982858 -0.21248573 1.2060001 55 126 184 255
0.056280006 -0.21248573 1.2060001 55 126 184 255
0.058771431 -0.21319048 1.21 55 126 184 255
0.061076194 -0.21319048 1.21 55 126 184 255
0.063380957 -0.21319048 1.21 55 126 184 255
0.065685712 -0.21319048 1.21 55 126 184 255
0.06776572 -0.21248573 1.2060001 55 126 184 255
0.070062861 -0.21248573 1.2060001 55 126 184 255
0.072360002 -0.21248573 1.2060001 55 126 184 255
0.07465715 -0.21248573 1.2060001 55 126 184 255
0.076954298 -0.21248573 1.2060001 55 126 184 255
0.079251431 -0.21248573 1.2060001 55 126 184 255
0.081548579 -0.21248573 1.2060001 55 126 184 255
0.08384572 -0.21248573 1.2060001 55 126 184 255
0.08614286 -0.21248573 1.2060001 55 126 184 255
0.088146664 -0.21178097 1.202 55 126 184 255
0.09043619 -0.21178097 1.202 55 126 184 255
0.092725717 -0.21178097 1.202 55 126 184 255
0.095015235 -0.21178097 1.202 55 126 184 255
0.097304761 -0.21178097 1.202 55 126 184 255
0.099594288 -0.21178097 1.202 55 126 184 255
0.10188381 -0.21178097 1.202 55 126 184 255
0.10374 -0.21090001 1.197 55 126 184 255
0.10566572 -0.21019526 1.1930001 55 126 184 255
0.10757619 -0.20949046 1.189 55 126 184 255
0.10947143 -0.20878571 1.1850001 55 126 184 255
0.11172857 -0.20878571 1.1850001 55 126 184 255
0.11360096 -0.20808096 1.1810001 55 126 184 255
0.11545809 -0.2073762 1.177 55 126 184 255
0.1169 -0.20596667 1.169 55 126 184 255
0.11790381 -0.20385239 1.1570001 55 126 184 255
0.11969239 -0.20314761 1.153 55 126 184 255
0.12146572 -0.20244285 1.149 55 126 184 255
0.12365429 -0.20244285 1.149 55 126 184 255
0.12584287 -0.20244285 1.149 55 126 184 255
0.12803143 -0.20244285 1.149 55 126 184 255
-0.016257143 -0.19833714 1.138 55 126 184 255
-0.014089524 -0.19833714 1.138 55 126 184 255
-0.011921904 -0.19833714 1.138 55 126 184 255
-0.0097542861 -0.19833714 1.138 55 126 184 255
-0.0075866668 -0.19833714 1.138 55 126 184 255
-0.0054000001 -0.19764002 1.1340001 55 126 184 255
-0.0032285713 -0.19694285 1.13 55 126 184 255
-0.0010761905 -0.19694285 1.13 55 126 184 255
0.0011400001 -0.20862001 1.197 55 126 184 255
0.00342 -0.20862001 1.197 55 126 184 255
0.0057000001 -0.20862001 1.197 55 126 184 255
0.0079799993 -0.20862001 1.197 55 126 184 255
0.010302857 -0.20949143 1.202 55 126 184 255
0.012592381 -0.20949143 1.202 55 126 184 255
0.014881905 -0.20949143 1.202 55 126 184 255
0.017171429 -0.20949143 1.202 55 126 184 255
0.019460952 -0.20949143 1.202 55 126 184 255
0.021750478 -0.20949143 1.202 55 126 184 255
0.024120001 -0.21018858 1.2060001 55 126 184 255
0.026417146 -0.21018858 1.2060001 55 126 184 255
0.028714286 -0.21018858 1.2060001 55 126 184 255
0.031114288 -0.21088572 1.21 55 126 184 255
0.033419047 -0.21088572 1.21 55 126 184 255
0.035723813 -0.21088572 1.21 55 126 184 255
0.038028572 -0.21088572 1.21 55 126 184 255
0.040333334 -0.21088572 1.21 55 126 184 255
0.042638097 -0.21088572 1.21 55 126 184 255
0.04494286 -0.21088572 1.21 55 126 184 255
0.047247618 -0.21088572 1.21 55 126 184 255
0.049552381 -0.21088572 1.21 55 126 184 255
0.051857144 -0.21088572 1.21 55 126 184 255
0.054161906 -0.21088572 1.21 55 126 184 255
0.056466665 -0.21088572 1.21 55 126 184 255
0.058771431 -0.21088572 1.21 55 126 184 255
0.061076194 -0.21088572 1.21 55 126 184 255
0.063171431 -0.21018858 1.2060001 55 126 184 255
0.065468572 -0.21018858 1.2060001 55 126 184 255
0.067990474 -0.21088572 1.21 55 126 184 255
0.070295244 -0.21088572 1.21 55 126 184 255
0.072360002 -0.21018858 1.2060001 55 126 184 255
0.07465715 -0.21018858 1.2060001 55 126 184 255
0.076954298 -0.21018858 1.2060001 55 126 184 255
0.079251431 -0.21018858 1.2060001 55 126 184 255
0.081548579 -0.21018858 1.2060001 55 126 184 255
0.08384572 -0.21018858 1.2060001 55 126 184 255
0.08614286 -0.21018858 1.2060001 55 126 184 255
0.088440008 -0.21018858 1.2060001 55 126 184 255
0.090737149 -0.21018858 1.2060001 55 126 184 255
0.092725717 -0.20949143 1.202 55 126 184 255
0.095015235 -0.20949143 1.202 55 126 184 255
0.097304761 -0.20949143 1.202 55 126 184 255
0.099594288 -0.20949143 1.202 55 126 184 255
0.10188381 -0.20949143 1.202 55 126 184 255
0.10374 -0.20862001 1.197 55 126 184 255
0.10566572 -0.20792288 1.1930001 55 126 184 255
0.10757619 -0.20722571 1.189 55 126 184 255
0.10984095 -0.20722571 1.189 55 126 184 255
0.11172857 -0.20652857 1.1850001 55 126 184 255
0.11398572 -0.20652857 1.1850001 55 126 184 255
0.11585049 -0.20583144 1.1810001 55 126 184 255
0.1177 -0.20513429 1.177 55 126 184 255
0.11831143 -0.20234571 1.161 55 126 184 255
0.11969239 -0.20095141 1.153 55 126 184 255
0.12188857 -0.20095141 1.153 55 126 184 255
0.12365429 -0.20025429 1.149 55 126 184 255
0.12584287 -0.20025429 1.149 55 126 184 255
0.12758572 -0.19955716 1.1450001 55 126 184 255
0.12976667 -0.19955716 1.1450001 55 126 184 255
-0.016257143 -0.19616953 1.138 55 126 184 255
-0.014089524 -0.19616953 1.138 55 126 184 255
-0.011921904 -0.19616953 1.138 55 126 184 255
-0.0097542861 -0.19616953 1.138 55 126 184 255
-0.0075866668 -0.19616953 1.138 55 126 184 255
-0.0054000001 -0.19548 1.1340001 55 126 184 255
-0.0032400002 -0.19548 1.1340001 55 126 184 255
-0.0011400001 -0.20634 1.197 55 126 184 255
0.0011400001 -0.20634 1.197 55 126 184 255
0.00342 -0.20634 1.197 55 126 184 255
0.0057000001 -0.20634 1.197 55 126 184 255
0.0079799993 -0.20634 1.197 55 126 184 255
0.010302857 -0.2072019 1.202 55 126 184 255
0.012592381 -0.2072019 1.202 55 126 184 255
0.014881905 -0.2072019 1.202 55 126 184 255
0.017171429 -0.2072019 1.202 55 126 184 255
0.019460952 -0.2072019 1.202 55 126 184 255
0.021822859 -0.20789143 1.2060001 55 126 184 255
0.024120001 -0.20789143 1.2060001 55 126 184 255
0.026417146 -0.20789143 1.2060001 55 126 184 255
0.028714286 -0.20789143 1.2060001 55 126 184 255
0.031011432 -0.20789143 1.2060001 55 126 184 255
0.033419047 -0.20858096 1.21 55 126 184 255
0.035723813 -0.20858096 1.21 55 126 184 255
0.038028572 -0.20858096 1.21 55 126 184 255
0.040333334 -0.20858096 1.21 55 126 184 255
0.042638097 -0.20858096 1.21 55 126 184 255
0.04494286 -0.20858096 1.21 55 126 184 255
0.047247618 -0.20858096 1.21 55 126 184 255
0.049552381 -0.20858096 1.21 55 126 184 255
0.051857144 -0.20858096 1.21 55 126 184 255
0.053982858 -0.20789143 1.2060001 55 126 184 255
0.056280006 -0.20789143 1.2060001 55 126 184 255
0.058771431 -0.20858096 1.21 55 126 184 255
0.061076194 -0.20858096 1.21 55 126 184 255
0.063171431 -0.20789143 1.2060001 55 126 184 255
0.065468572 -0.20789143 1.2060001 55 126 184 255
0.067990474 -0.20858096 1.21 55 126 184 255
0.070295244 -0.20858096 1.21 55 126 184 255
0.072360002 -0.20789143 1.2060001 55 126 184 255
0.07465715 -0.20789143 1.2060001 55 126 184 255
0.076954298 -0.20789143 1.2060001 55 126 184 255
0.079251431 -0.20789143 1.2060001 55 126 184 255
0.081548579 -0.20789143 1.2060001 55 126 184 255
0.08384572 -0.20789143 1.2060001 55 126 184 255
0.08614286 -0.20789143 1.2060001 55 126 184 255
0.088440008 -0.20789143 1.2060001 55 126 184 255
0.090737149 -0.20789143 1.2060001 55 126 184 255
0.09303429 -0.20789143 1.2060001 55 126 184 255
0.095331438 -0.20789143 1.2060001 55 126 184 255
0.097628579 -0.20789143 1.2060001 55 126 184 255
0.099925719 -0.20789143 1.2060001 55 126 184 255
0.10222286 -0.20789143 1.2060001 55 126 184 255
0.10417333 -0.2072019 1.202 55 126 184 255
0.10602 -0.20634 1.197 55 126 184 255
0.1083 -0.20634 1.197 55 126 184 255
0.11021049 -0.20565049 1.1930001 55 126 184 255
0.11210571 -0.20496096 1.189 55 126 184 255
0.11398572 -0.20427144 1.1850001 55 126 184 255
0.11624286 -0.20427144 1.1850001 55 126 184 255
0.1177 -0.20289238 1.177 55 126 184 255
0.11871905 -0.20082383 1.1650001 55 126 184 255
0.12010762 -0.19944477 1.1570001 55 126 184 255
0.12188857 -0.19875523 1.153 55 126 184 255
0.12365429 -0.19806573 1.149 55 126 184 255
0.12540478 -0.19737621 1.1450001 55 126 184 255
0.12758572 -0.19737621 1.1450001 55 126 184 255
0.12976667 -0.19737621 1.1450001 55 126 184 255
-0.14197905 -0.1940019 1.138 55 126 184 255
-0.13981143 -0.1940019 1.138 55 126 184 255
-0.018424762 -0.1940019 1.138 55 126 184 255
-0.016257143 -0.1940019 1.138 55 126 184 255
-0.014089524 -0.1940019 1.138 55 126 184 255
-0.011921904 -0.1940019 1.138 55 126 184 255
-0.0097542861 -0.1940019 1.138 55 126 184 255
-0.0075866668 -0.1940019 1.138 55 126 184 255
-0.0054000001 -0.19332001 1.1340001 55 126 184 255
-0.0032400002 -0.19332001 1.1340001 55 126 184 255
-0.0011400001 -0.20406 1.197 55 126 184 255
0.0011447619 -0.20491238 1.202 55 126 184 255
0.00342 -0.20406 1.197 55 126 184 255
0.0057000001 -0.20406 1.197 55 126 184 255
0.0079799993 -0.20406 1.197 55 126 184 255
0.010302857 -0.20491238 1.202 55 126 184 255
0.012592381 -0.20491238 1.202 55 126 184 255
0.014881905 -0.20491238 1.202 55 126 184 255
0.017228574 -0.2055943 1.2060001 55 126 184 255
0.019525714 -0.2055943 1.2060001 55 126 184 255
0.021822859 -0.2055943 1.2060001 55 126 184 255
0.024120001 -0.2055943 1.2060001 55 126 184 255
0.026417146 -0.2055943 1.2060001 55 126 184 255
0.028714286 -0.2055943 1.2060001 55 126 184 255
0.031011432 -0.2055943 1.2060001 55 126 184 255
0.033419047 -0.20627619 1.21 55 126 184 255
0.035723813 -0.20627619 1.21 55 126 184 255
0.038028572 -0.20627619 1.21 55 126 184 255
0.040333334 -0.20627619 1.21 55 126 184 255
0.042638097 -0.20627619 1.21 55 126 184 255
0.04494286 -0.20627619 1.21 55 126 184 255
0.047091432 -0.2055943 1.2060001 55 126 184 255
0.049388576 -0.2055943 1.2060001 55 126 184 255
0.051685717 -0.2055943 1.2060001 55 126 184 255
0.053982858 -0.2055943 1.2060001 55 126 184 255
0.056280006 -0.2055943 1.2060001 55 126 184 255
0.058771431 -0.20627619 1.21 55 126 184 255
0.061076194 -0.20627619 1.21 55 126 184 255
0.063380957 -0.20627619 1.21 55 126 184 255
0.065685712 -0.20627619 1.21 55 126 184 255
0.067990474 -0.20627619 1.21 55 126 184 255
0.070295244 -0.20627619 1.21 55 126 184 255
0.0726 -0.20627619 1.21 55 126 184 255
0.074904762 -0.20627619 1.21 55 126 184 255
0.076954298 -0.2055943 1.2060001 55 126 184 255
0.079251431 -0.2055943 1.2060001 55 126 184 255
0.081548579 -0.2055943 1.2060001 55 126 184 255
0.08384572 -0.2055943 1.2060001 55 126 184 255
0.08614286 -0.2055943 1.2060001 55 126 184 255
0.088440008 -0.2055943 1.2060001 55 126 184 255
0.090737149 -0.2055943 1.2060001 55 126 184 255
0.09303429 -0.2055943 1.2060001 55 126 184 255
0.095331438 -0.2055943 1.2060001 55 126 184 255
0.097628579 -0.2055943 1.2060001 55 126 184 255
0.099925719 -0.2055943 1.2060001 55 126 184 255
0.10222286 -0.2055943 1.2060001 55 126 184 255
0.10417333 -0.20491238 1.202 55 126 184 255
0.10646286 -0.20491238 1.202 55 126 184 255
0.1083 -0.20406 1.197 55 126 184 255
0.11021049 -0.20337811 1.1930001 55 126 184 255
0.11248287 -0.20337811 1.1930001 55 126 184 255
0.11437048 -0.2026962 1.189 55 126 184 255
0.11624286 -0.20201428 1.1850001 55 126 184 255
0.1185 -0.20201428 1.1850001 55 126 184 255
0.12034953 -0.20133239 1.1810001 55 126 184 255
0.12010762 -0.19724096 1.1570001 55 126 184 255
0.12188857 -0.19655904 1.153 55 126 184 255
0.12322382 -0.19519526 1.1450001 55 126 184 255
0.12540478 -0.19519526 1.1450001 55 126 184 255
0.12758572 -0.19519526 1.1450001 55 126 184 255
0.12931333 -0.19451334 1.141 55 126 184 255
0.13148667 -0.19451334 1.141 55 126 184 255
-0.14197905 -0.19183429 1.138 55 126 184 255
-0.13981143 -0.19183429 1.138 55 126 184 255
-0.020719048 -0.19301431 1.1450001 55 126 184 255
-0.018424762 -0.19183429 1.138 55 126 184 255
-0.016257143 -0.19183429 1.138 55 126 184 255
-0.014089524 -0.19183429 1.138 55 126 184 255
-0.011921904 -0.19183429 1.138 55 126 184 255
-0.0097542861 -0.19183429 1.138 55 126 184 255
-0.0075866668 -0.19183429 1.138 55 126 184 255
-0.0054000001 -0.19116001 1.1340001 55 126 184 255
-0.0032400002 -0.19116001 1.1340001 55 126 184 255
-0.0011400001 -0.20178001 1.197 55 126 184 255
0.0011447619 -0.20262285 1.202 55 126 184 255
0.0034342855 -0.20262285 1.202 55 126 184 255
0.0057238098 -0.20262285 1.202 55 126 184 255
0.0080133341 -0.20262285 1.202 55 126 184 255
0.010302857 -0.20262285 1.202 55 126 184 255
0.012592381 -0.20262285 1.202 55 126 184 255
0.014881905 -0.20262285 1.202 55 126 184 255
0.017228574 -0.20329715 1.2060001 55 126 184 255
0.019525714 -0.20329715 1.2060001 55 126 184 255
0.021822859 -0.20329715 1.2060001 55 126 184 255
0.024120001 -0.20329715 1.2060001 55 126 184 255
0.026417146 -0.20329715 1.2060001 55 126 184 255
0.028714286 -0.20329715 1.2060001 55 126 184 255
0.031011432 -0.20329715 1.2060001 55 126 184 255
0.033419047 -0.20397145 1.21 55 126 184 255
0.035723813 -0.20397145 1.21 55 126 184 255
0.037902862 -0.20329715 1.2060001 55 126 184 255
0.040200002 -0.20329715 1.2060001 55 126 184 255
0.042638097 -0.20397145 1.21 55 126 184 255
0.04494286 -0.20397145 1.21 55 126 184 255
0.047091432 -0.20329715 1.2060001 55 126 184 255
0.049388576 -0.20329715 1.2060001 55 126 184 255
0.051685717 -0.20329715 1.2060001 55 126 184 255
0.053982858 -0.20329715 1.2060001 55 126 184 255
0.056280006 -0.20329715 1.2060001 55 126 184 255
0.058577146 -0.20329715 1.2060001 55 126 184 255
0.060874287 -0.20329715 1.2060001 55 126 184 255
0.063380957 -0.20397145 1.21 55 126 184 255
0.065685712 -0.20397145 1.21 55 126 184 255
