ply
format ascii 1.0
comment PCL generated
element vertex 1039
property float x
property float y
property float z
property uchar red
property uchar green
property uchar blue
property uchar alpha
element camera 0
property float view_px
property float view_py
property float view_pz
property float x_axisx
property float x_axisy
property float x_axisz
property float y_axisx
property float y_axisy
property float y_axisz
property float z_axisx
property float z_axisy
property float z_axisz
property float focal
property float scalex
property float scaley
property float centerx
property float centery
property int viewportx
property int viewporty
property float k1
property float k2
end_header
-0.15547715 -0.20628668 1.067 255 127 0 255
-0.15344477 -0.20628668 1.067 255 127 0 255
-0.15141238 -0.20628668 1.067 255 127 0 255
-0.14938 -0.20628668 1.067 255 127 0 255
-0.14734763 -0.20628668 1.067 255 127 0 255
-0.14531524 -0.20628668 1.067 255 127 0 255
-0.14328286 -0.20628668 1.067 255 127 0 255
-0.14164762 -0.20686667 1.0700001 255 127 0 255
-0.13960953 -0.20686667 1.0700001 255 127 0 255
-0.13757144 -0.20686667 1.0700001 255 127 0 255
-0.13591334 -0.20744668 1.0730001 255 127 0 255
-0.13386953 -0.20744668 1.0730001 255 127 0 255
-0.13182572 -0.20744668 1.0730001 255 127 0 255
-0.12978192 -0.20744668 1.0730001 255 127 0 255
-0.12821428 -0.20822001 1.077 255 127 0 255
-0.12616286 -0.20822001 1.077 255 127 0 255
-0.12445715 -0.2088 1.08 255 127 0 255
-0.1224 -0.2088 1.08 255 127 0 255
-0.12034287 -0.2088 1.08 255 127 0 255
-0.11872382 -0.20957334 1.0840001 255 127 0 255
-0.11665906 -0.20957334 1.0840001 255 127 0 255
-0.1145943 -0.20957334 1.0840001 255 127 0 255
-0.11284095 -0.21015333 1.087 255 127 0 255
-0.11077047 -0.21015333 1.087 255 127 0 255
-0.109 -0.21073334 1.09 255 127 0 255
-0.10692381 -0.21073334 1.09 255 127 0 255
-0.10484762 -0.21073334 1.09 255 127 0 255
-0.10277143 -0.21073334 1.09 255 127 0 255
-0.10069524 -0.21073334 1.09 255 127 0 255
-0.098980956 -0.21150668 1.0940001 255 127 0 255
-0.096897155 -0.21150668 1.0940001 255 127 0 255
-0.094813339 -0.21150668 1.0940001 255 127 0 255
-0.092983812 -0.21208666 1.097 255 127 0 255
-0.090894289 -0.21208666 1.097 255 127 0 255
-0.088804767 -0.21208666 1.097 255 127 0 255
-0.086715236 -0.21208666 1.097 255 127 0 255
-0.084625714 -0.21208666 1.097 255 127 0 255
-0.083138093 -0.21363333 1.105 255 127 0 255
-0.081033334 -0.21363333 1.105 255 127 0 255
-0.078928567 -0.21363333 1.105 255 127 0 255
-0.076823808 -0.21363333 1.105 255 127 0 255
-0.074921906 -0.21421334 1.108 255 127 0 255
-0.072811432 -0.21421334 1.108 255 127 0 255
-0.070700951 -0.21421334 1.108 255 127 0 255
-0.068590477 -0.21421334 1.108 255 127 0 255
-0.066480003 -0.21421334 1.108 255 127 0 255
-0.064369529 -0.21421334 1.108 255 127 0 255
-0.062259048 -0.21421334 1.108 255 127 0 255
-0.060365722 -0.21498668 1.1120001 255 127 0 255
-0.058247626 -0.21498668 1.1120001 255 127 0 255
-0.056280952 -0.21556666 1.115 255 127 0 255
-0.054157145 -0.21556666 1.115 255 127 0 255
-0.052220006 -0.21634001 1.1190001 255 127 0 255
-0.044553336 -0.22059333 1.141 255 127 0 255
-0.042380001 -0.22059333 1.141 255 127 0 255
-0.040206671 -0.22059333 1.141 255 127 0 255
-0.038166672 -0.22136667 1.1450001 255 127 0 255
-0.036111429 -0.22214 1.149 255 127 0 255
-0.033922859 -0.22214 1.149 255 127 0 255
-0.031734288 -0.22214 1.149 255 127 0 255
-0.029648572 -0.22291334 1.153 255 127 0 255
-0.027452381 -0.22291334 1.153 255 127 0 255
-0.025256189 -0.22291334 1.153 255 127 0 255
-0.02306 -0.22291334 1.153 255 127 0 255
-0.020863809 -0.22291334 1.153 255 127 0 255
-0.018732382 -0.22368668 1.1570001 255 127 0 255
-0.016528573 -0.22368668 1.1570001 255 127 0 255
-0.014324762 -0.22368668 1.1570001 255 127 0 255
-0.012120954 -0.22368668 1.1570001 255 127 0 255
-0.0099171428 -0.22368668 1.1570001 255 127 0 255
-0.0077133342 -0.22368668 1.1570001 255 127 0 255
-0.0055095241 -0.22368668 1.1570001 255 127 0 255
-0.0033057143 -0.22368668 1.1570001 255 127 0 255
-0.0011019048 -0.22368668 1.1570001 255 127 0 255
0.0011057142 -0.22445999 1.161 255 127 0 255
0.0033171428 -0.22445999 1.161 255 127 0 255
0.0055285715 -0.22445999 1.161 255 127 0 255
0.0077399998 -0.22445999 1.161 255 127 0 255
0.0099514285 -0.22445999 1.161 255 127 0 255
0.012162857 -0.22445999 1.161 255 127 0 255
0.014374286 -0.22445999 1.161 255 127 0 255
0.016585715 -0.22445999 1.161 255 127 0 255
0.018797142 -0.22445999 1.161 255 127 0 255
0.021008572 -0.22445999 1.161 255 127 0 255
0.02314 -0.22368668 1.1570001 255 127 0 255
0.025343811 -0.22368668 1.1570001 255 127 0 255
0.02754762 -0.22368668 1.1570001 255 127 0 255
0.029751431 -0.22368668 1.1570001 255 127 0 255
0.031955238 -0.22368668 1.1570001 255 127 0 255
0.034159049 -0.22368668 1.1570001 255 127 0 255
0.03636286 -0.22368668 1.1570001 255 127 0 255
0.038566668 -0.22368668 1.1570001 255 127 0 255
0.040770479 -0.22368668 1.1570001 255 127 0 255
0.042974286 -0.22368668 1.1570001 255 127 0 255
0.045021903 -0.22291334 1.153 255 127 0 255
0.047218092 -0.22291334 1.153 255 127 0 255
0.049414285 -0.22291334 1.153 255 127 0 255
0.051610474 -0.22291334 1.153 255 127 0 255
0.053806666 -0.22291334 1.153 255 127 0 255
0.056197144 -0.22368668 1.1570001 255 127 0 255
0.058400955 -0.22368668 1.1570001 255 127 0 255
0.060604762 -0.22368668 1.1570001 255 127 0 255
0.062808573 -0.22368668 1.1570001 255 127 0 255
0.06501238 -0.22368668 1.1570001 255 127 0 255
0.067216195 -0.22368668 1.1570001 255 127 0 255
0.069179997 -0.22291334 1.153 255 127 0 255
0.07137619 -0.22291334 1.153 255 127 0 255
0.073827624 -0.22368668 1.1570001 255 127 0 255
0.076031432 -0.22368668 1.1570001 255 127 0 255
0.078235239 -0.22368668 1.1570001 255 127 0 255
0.080439053 -0.22368668 1.1570001 255 127 0 255
0.082642861 -0.22368668 1.1570001 255 127 0 255
0.084846668 -0.22368668 1.1570001 255 127 0 255
0.087050483 -0.22368668 1.1570001 255 127 0 255
0.08925429 -0.22368668 1.1570001 255 127 0 255
0.091458097 -0.22368668 1.1570001 255 127 0 255
0.093661912 -0.22368668 1.1570001 255 127 0 255
0.095865719 -0.22368668 1.1570001 255 127 0 255
0.098408572 -0.22445999 1.161 255 127 0 255
0.10062 -0.22445999 1.161 255 127 0 255
0.10283143 -0.22445999 1.161 255 127 0 255
-0.16970381 -0.2042543 1.067 255 127 0 255
-0.16767143 -0.2042543 1.067 255 127 0 255
-0.16563906 -0.2042543 1.067 255 127 0 255
-0.16360667 -0.2042543 1.067 255 127 0 255
-0.16157429 -0.2042543 1.067 255 127 0 255
-0.15954192 -0.2042543 1.067 255 127 0 255
-0.15750954 -0.2042543 1.067 255 127 0 255
-0.15547715 -0.2042543 1.067 255 127 0 255
-0.15344477 -0.2042543 1.067 255 127 0 255
-0.15141238 -0.2042543 1.067 255 127 0 255
-0.14938 -0.2042543 1.067 255 127 0 255
-0.14734763 -0.2042543 1.067 255 127 0 255
-0.14531524 -0.2042543 1.067 255 127 0 255
-0.14328286 -0.2042543 1.067 255 127 0 255
-0.14164762 -0.20482858 1.0700001 255 127 0 255
-0.13960953 -0.20482858 1.0700001 255 127 0 255
-0.13757144 -0.20482858 1.0700001 255 127 0 255
-0.13591334 -0.20540287 1.0730001 255 127 0 255
-0.13386953 -0.20540287 1.0730001 255 127 0 255
-0.13231714 -0.20616858 1.077 255 127 0 255
-0.13026571 -0.20616858 1.077 255 127 0 255
-0.12857142 -0.20674285 1.08 255 127 0 255
-0.1265143 -0.20674285 1.08 255 127 0 255
-0.12445715 -0.20674285 1.08 255 127 0 255
-0.1224 -0.20674285 1.08 255 127 0 255
-0.12034287 -0.20674285 1.08 255 127 0 255
-0.11872382 -0.20750858 1.0840001 255 127 0 255
-0.11665906 -0.20750858 1.0840001 255 127 0 255
-0.1145943 -0.20750858 1.0840001 255 127 0 255
-0.11284095 -0.20808285 1.087 255 127 0 255
-0.11077047 -0.20808285 1.087 255 127 0 255
-0.109 -0.20865715 1.09 255 127 0 255
-0.10692381 -0.20865715 1.09 255 127 0 255
-0.10484762 -0.20865715 1.09 255 127 0 255
-0.10277143 -0.20865715 1.09 255 127 0 255
-0.10069524 -0.20865715 1.09 255 127 0 255
-0.098619051 -0.20865715 1.09 255 127 0 255
-0.096897155 -0.20942289 1.0940001 255 127 0 255
-0.094813339 -0.20942289 1.0940001 255 127 0 255
-0.092983812 -0.20999713 1.097 255 127 0 255
-0.090894289 -0.20999713 1.097 255 127 0 255
-0.088804767 -0.20999713 1.097 255 127 0 255
-0.086715236 -0.20999713 1.097 255 127 0 255
-0.084934294 -0.21076286 1.1010001 255 127 0 255
-0.083138093 -0.21152858 1.105 255 127 0 255
-0.081033334 -0.21152858 1.105 255 127 0 255
-0.078928567 -0.21152858 1.105 255 127 0 255
-0.076823808 -0.21152858 1.105 255 127 0 255
-0.074719049 -0.21152858 1.105 255 127 0 255
-0.072811432 -0.21210286 1.108 255 127 0 255
-0.070700951 -0.21210286 1.108 255 127 0 255
-0.068590477 -0.21210286 1.108 255 127 0 255
-0.066480003 -0.21210286 1.108 255 127 0 255
-0.064369529 -0.21210286 1.108 255 127 0 255
-0.062259048 -0.21210286 1.108 255 127 0 255
-0.060365722 -0.21286859 1.1120001 255 127 0 255
-0.058247626 -0.21286859 1.1120001 255 127 0 255
-0.056129526 -0.21286859 1.1120001 255 127 0 255
-0.054011434 -0.21286859 1.1120001 255 127 0 255
-0.052220006 -0.21420859 1.1190001 255 127 0 255
-0.050088573 -0.21420859 1.1190001 255 127 0 255
-0.048128571 -0.21497428 1.123 255 127 0 255
-0.046440002 -0.21708 1.1340001 255 127 0 255
-0.04443619 -0.21784572 1.138 255 127 0 255
-0.042268571 -0.21784572 1.138 255 127 0 255
-0.040100951 -0.21784572 1.138 255 127 0 255
-0.037933335 -0.21784572 1.138 255 127 0 255
-0.035985716 -0.21918572 1.1450001 255 127 0 255
-0.033804763 -0.21918572 1.1450001 255 127 0 255
-0.031734288 -0.21995144 1.149 255 127 0 255
-0.029545715 -0.21995144 1.149 255 127 0 255
-0.027452381 -0.22071715 1.153 255 127 0 255
-0.025256189 -0.22071715 1.153 255 127 0 255
-0.02306 -0.22071715 1.153 255 127 0 255
-0.020863809 -0.22071715 1.153 255 127 0 255
-0.018667618 -0.22071715 1.153 255 127 0 255
-0.016528573 -0.22148286 1.1570001 255 127 0 255
-0.014324762 -0.22148286 1.1570001 255 127 0 255
-0.012120954 -0.22148286 1.1570001 255 127 0 255
-0.0099171428 -0.22148286 1.1570001 255 127 0 255
-0.0077133342 -0.22148286 1.1570001 255 127 0 255
-0.0055095241 -0.22148286 1.1570001 255 127 0 255
-0.0033057143 -0.22148286 1.1570001 255 127 0 255
-0.0011019048 -0.22148286 1.1570001 255 127 0 255
0.0011019048 -0.22148286 1.1570001 255 127 0 255
0.0033057143 -0.22148286 1.1570001 255 127 0 255
0.0055095241 -0.22148286 1.1570001 255 127 0 255
0.0077133342 -0.22148286 1.1570001 255 127 0 255
0.0099171428 -0.22148286 1.1570001 255 127 0 255
0.012120954 -0.22148286 1.1570001 255 127 0 255
0.014374286 -0.22224857 1.161 255 127 0 255
0.016528573 -0.22148286 1.1570001 255 127 0 255
0.018732382 -0.22148286 1.1570001 255 127 0 255
0.021008572 -0.22224857 1.161 255 127 0 255
0.02314 -0.22148286 1.1570001 255 127 0 255
0.025343811 -0.22148286 1.1570001 255 127 0 255
0.02754762 -0.22148286 1.1570001 255 127 0 255
0.029751431 -0.22148286 1.1570001 255 127 0 255
0.031955238 -0.22148286 1.1570001 255 127 0 255
0.034159049 -0.22148286 1.1570001 255 127 0 255
0.03636286 -0.22148286 1.1570001 255 127 0 255
0.038566668 -0.22148286 1.1570001 255 127 0 255
0.040770479 -0.22148286 1.1570001 255 127 0 255
0.042974286 -0.22148286 1.1570001 255 127 0 255
0.045021903 -0.22071715 1.153 255 127 0 255
0.047218092 -0.22071715 1.153 255 127 0 255
0.049414285 -0.22071715 1.153 255 127 0 255
0.051610474 -0.22071715 1.153 255 127 0 255
0.053806666 -0.22071715 1.153 255 127 0 255
0.056197144 -0.22148286 1.1570001 255 127 0 255
0.058199048 -0.22071715 1.153 255 127 0 255
0.060395237 -0.22071715 1.153 255 127 0 255
0.062808573 -0.22148286 1.1570001 255 127 0 255
0.064787619 -0.22071715 1.153 255 127 0 255
0.066983812 -0.22071715 1.153 255 127 0 255
0.069179997 -0.22071715 1.153 255 127 0 255
0.07137619 -0.22071715 1.153 255 127 0 255
0.073572382 -0.22071715 1.153 255 127 0 255
0.075768568 -0.22071715 1.153 255 127 0 255
0.078235239 -0.22148286 1.1570001 255 127 0 255
0.080439053 -0.22148286 1.1570001 255 127 0 255
0.082642861 -0.22148286 1.1570001 255 127 0 255
0.084846668 -0.22148286 1.1570001 255 127 0 255
0.087050483 -0.22148286 1.1570001 255 127 0 255
0.08925429 -0.22148286 1.1570001 255 127 0 255
0.091458097 -0.22148286 1.1570001 255 127 0 255
0.093661912 -0.22148286 1.1570001 255 127 0 255
0.095865719 -0.22148286 1.1570001 255 127 0 255
0.098408572 -0.22224857 1.161 255 127 0 255
0.10062 -0.22224857 1.161 255 127 0 255
0.10283143 -0.22224857 1.161 255 127 0 255
-0.16767143 -0.20222192 1.067 255 127 0 255
-0.16563906 -0.20222192 1.067 255 127 0 255
-0.16360667 -0.20222192 1.067 255 127 0 255
-0.16157429 -0.20222192 1.067 255 127 0 255
-0.15954192 -0.20222192 1.067 255 127 0 255
-0.15750954 -0.20222192 1.067 255 127 0 255
-0.15547715 -0.20222192 1.067 255 127 0 255
-0.15344477 -0.20222192 1.067 255 127 0 255
-0.15141238 -0.20222192 1.067 255 127 0 255
-0.14938 -0.20222192 1.067 255 127 0 255
-0.14734763 -0.20222192 1.067 255 127 0 255
-0.14531524 -0.20222192 1.067 255 127 0 255
-0.14328286 -0.20222192 1.067 255 127 0 255
-0.14164762 -0.20279048 1.0700001 255 127 0 255
-0.13960953 -0.20279048 1.0700001 255 127 0 255
-0.13757144 -0.20279048 1.0700001 255 127 0 255
-0.13591334 -0.20335905 1.0730001 255 127 0 255
-0.13386953 -0.20335905 1.0730001 255 127 0 255
-0.13231714 -0.20411713 1.077 255 127 0 255
-0.13026571 -0.20411713 1.077 255 127 0 255
-0.12857142 -0.20468572 1.08 255 127 0 255
-0.1265143 -0.20468572 1.08 255 127 0 255
-0.12445715 -0.20468572 1.08 255 127 0 255
-0.12285335 -0.20544383 1.0840001 255 127 0 255
-0.12078858 -0.20544383 1.0840001 255 127 0 255
-0.11872382 -0.20544383 1.0840001 255 127 0 255
-0.11665906 -0.20544383 1.0840001 255 127 0 255
-0.1145943 -0.20544383 1.0840001 255 127 0 255
-0.11284095 -0.20601238 1.087 255 127 0 255
-0.11077047 -0.20601238 1.087 255 127 0 255
-0.1087 -0.20601238 1.087 255 127 0 255
-0.10662952 -0.20601238 1.087 255 127 0 255
-0.10484762 -0.20658095 1.09 255 127 0 255
-0.10277143 -0.20658095 1.09 255 127 0 255
-0.10069524 -0.20658095 1.09 255 127 0 255
-0.098619051 -0.20658095 1.09 255 127 0 255
-0.096897155 -0.20733906 1.0940001 255 127 0 255
-0.094813339 -0.20733906 1.0940001 255 127 0 255
-0.092983812 -0.20790762 1.097 255 127 0 255
-0.090894289 -0.20790762 1.097 255 127 0 255
-0.089128576 -0.20866573 1.1010001 255 127 0 255
-0.087031431 -0.20866573 1.1010001 255 127 0 255
-0.084934294 -0.20866573 1.1010001 255 127 0 255
-0.083138093 -0.20942381 1.105 255 127 0 255
-0.081033334 -0.20942381 1.105 255 127 0 255
-0.078928567 -0.20942381 1.105 255 127 0 255
-0.076823808 -0.20942381 1.105 255 127 0 255
-0.074719049 -0.20942381 1.105 255 127 0 255
-0.072811432 -0.20999238 1.108 255 127 0 255
-0.070700951 -0.20999238 1.108 255 127 0 255
-0.068590477 -0.20999238 1.108 255 127 0 255
-0.066480003 -0.20999238 1.108 255 127 0 255
-0.064369529 -0.20999238 1.108 255 127 0 255
-0.062259048 -0.20999238 1.108 255 127 0 255
-0.060365722 -0.21075049 1.1120001 255 127 0 255
-0.058247626 -0.21075049 1.1120001 255 127 0 255
-0.056129526 -0.21075049 1.1120001 255 127 0 255
-0.054011434 -0.21075049 1.1120001 255 127 0 255
-0.052220006 -0.21207716 1.1190001 255 127 0 255
-0.050088573 -0.21207716 1.1190001 255 127 0 255
-0.048128571 -0.21283524 1.123 255 127 0 255
-0.046112385 -0.21340381 1.126 255 127 0 255
-0.044280004 -0.21492001 1.1340001 255 127 0 255
-0.042120002 -0.21492001 1.1340001 255 127 0 255
-0.039960004 -0.21492001 1.1340001 255 127 0 255
-0.037933335 -0.2156781 1.138 255 127 0 255
-0.035859998 -0.21624666 1.141 255 127 0 255
-0.033804763 -0.21700479 1.1450001 255 127 0 255
-0.031734288 -0.21776287 1.149 255 127 0 255
-0.029545715 -0.21776287 1.149 255 127 0 255
-0.027452381 -0.21852095 1.153 255 127 0 255
-0.025256189 -0.21852095 1.153 255 127 0 255
-0.02306 -0.21852095 1.153 255 127 0 255
-0.020863809 -0.21852095 1.153 255 127 0 255
-0.018667618 -0.21852095 1.153 255 127 0 255
-0.016471429 -0.21852095 1.153 255 127 0 255
-0.014275238 -0.21852095 1.153 255 127 0 255
-0.012079047 -0.21852095 1.153 255 127 0 255
-0.0098828571 -0.21852095 1.153 255 127 0 255
-0.0077133342 -0.21927905 1.1570001 255 127 0 255
-0.0055095241 -0.21927905 1.1570001 255 127 0 255
-0.0033057143 -0.21927905 1.1570001 255 127 0 255
-0.0011019048 -0.21927905 1.1570001 255 127 0 255
0.0011019048 -0.21927905 1.1570001 255 127 0 255
0.0033057143 -0.21927905 1.1570001 255 127 0 255
0.0055095241 -0.21927905 1.1570001 255 127 0 255
0.0077133342 -0.21927905 1.1570001 255 127 0 255
0.0099171428 -0.21927905 1.1570001 255 127 0 255
0.012120954 -0.21927905 1.1570001 255 127 0 255
0.014324762 -0.21927905 1.1570001 255 127 0 255
0.016528573 -0.21927905 1.1570001 255 127 0 255
0.018732382 -0.21927905 1.1570001 255 127 0 255
0.020936191 -0.21927905 1.1570001 255 127 0 255
0.02314 -0.21927905 1.1570001 255 127 0 255
0.025343811 -0.21927905 1.1570001 255 127 0 255
0.02754762 -0.21927905 1.1570001 255 127 0 255
0.029751431 -0.21927905 1.1570001 255 127 0 255
0.031955238 -0.21927905 1.1570001 255 127 0 255
0.034159049 -0.21927905 1.1570001 255 127 0 255
0.03648857 -0.22003715 1.161 255 127 0 255
0.038566668 -0.21927905 1.1570001 255 127 0 255
0.040770479 -0.21927905 1.1570001 255 127 0 255
0.042974286 -0.21927905 1.1570001 255 127 0 255
0.0451781 -0.21927905 1.1570001 255 127 0 255
0.047381908 -0.21927905 1.1570001 255 127 0 255
0.049585715 -0.21927905 1.1570001 255 127 0 255
0.051789526 -0.21927905 1.1570001 255 127 0 255
0.053993337 -0.21927905 1.1570001 255 127 0 255
0.056197144 -0.21927905 1.1570001 255 127 0 255
0.058199048 -0.21852095 1.153 255 127 0 255
0.060395237 -0.21852095 1.153 255 127 0 255
0.062808573 -0.21927905 1.1570001 255 127 0 255
0.064787619 -0.21852095 1.153 255 127 0 255
0.066983812 -0.21852095 1.153 255 127 0 255
0.069179997 -0.21852095 1.153 255 127 0 255
0.07137619 -0.21852095 1.153 255 127 0 255
0.073572382 -0.21852095 1.153 255 127 0 255
0.075768568 -0.21852095 1.153 255 127 0 255
0.078235239 -0.21927905 1.1570001 255 127 0 255
0.080439053 -0.21927905 1.1570001 255 127 0 255
0.082642861 -0.21927905 1.1570001 255 127 0 255
0.084846668 -0.21927905 1.1570001 255 127 0 255
0.087050483 -0.21927905 1.1570001 255 127 0 255
0.08925429 -0.21927905 1.1570001 255 127 0 255
0.091458097 -0.21927905 1.1570001 255 127 0 255
0.093661912 -0.21927905 1.1570001 255 127 0 255
0.095865719 -0.21927905 1.1570001 255 127 0 255
0.098408572 -0.22003715 1.161 255 127 0 255
0.10062 -0.22003715 1.161 255 127 0 255
0.10283143 -0.22003715 1.161 255 127 0 255
0.10504285 -0.22003715 1.161 255 127 0 255
-0.16563906 -0.20018953 1.067 255 127 0 255
-0.16360667 -0.20018953 1.067 255 127 0 255
-0.16157429 -0.20018953 1.067 255 127 0 255
-0.15954192 -0.20018953 1.067 255 127 0 255
-0.15750954 -0.20018953 1.067 255 127 0 255
-0.15547715 -0.20018953 1.067 255 127 0 255
-0.15344477 -0.20018953 1.067 255 127 0 255
-0.15141238 -0.20018953 1.067 255 127 0 255
-0.14938 -0.20018953 1.067 255 127 0 255
-0.14734763 -0.20018953 1.067 255 127 0 255
-0.14477049 -0.19943905 1.0630001 255 127 0 255
-0.14274572 -0.19943905 1.0630001 255 127 0 255
-0.14164762 -0.20075239 1.0700001 255 127 0 255
-0.13960953 -0.20075239 1.0700001 255 127 0 255
-0.13757144 -0.20075239 1.0700001 255 127 0 255
-0.13553335 -0.20075239 1.0700001 255 127 0 255
-0.13349526 -0.20075239 1.0700001 255 127 0 255
-0.13231714 -0.20206572 1.077 255 127 0 255
-0.13026571 -0.20206572 1.077 255 127 0 255
-0.12857142 -0.20262858 1.08 255 127 0 255
-0.1265143 -0.20262858 1.08 255 127 0 255
-0.12445715 -0.20262858 1.08 255 127 0 255
-0.12285335 -0.20337906 1.0840001 255 127 0 255
-0.12078858 -0.20337906 1.0840001 255 127 0 255
-0.11872382 -0.20337906 1.0840001 255 127 0 255
-0.11665906 -0.20337906 1.0840001 255 127 0 255
-0.1145943 -0.20337906 1.0840001 255 127 0 255
-0.11284095 -0.20394191 1.087 255 127 0 255
-0.11077047 -0.20394191 1.087 255 127 0 255
-0.1087 -0.20394191 1.087 255 127 0 255
-0.10662952 -0.20394191 1.087 255 127 0 255
-0.10484762 -0.20450477 1.09 255 127 0 255
-0.10277143 -0.20450477 1.09 255 127 0 255
-0.10069524 -0.20450477 1.09 255 127 0 255
-0.098619051 -0.20450477 1.09 255 127 0 255
-0.096897155 -0.20525526 1.0940001 255 127 0 255
-0.094813339 -0.20525526 1.0940001 255 127 0 255
-0.092983812 -0.20581809 1.097 255 127 0 255
-0.091225713 -0.20656858 1.1010001 255 127 0 255
-0.089128576 -0.20656858 1.1010001 255 127 0 255
-0.087031431 -0.20656858 1.1010001 255 127 0 255
-0.084934294 -0.20656858 1.1010001 255 127 0 255
-0.083138093 -0.20731904 1.105 255 127 0 255
-0.081033334 -0.20731904 1.105 255 127 0 255
-0.078928567 -0.20731904 1.105 255 127 0 255
-0.076823808 -0.20731904 1.105 255 127 0 255
-0.074719049 -0.20731904 1.105 255 127 0 255
-0.072811432 -0.2078819 1.108 255 127 0 255
-0.070700951 -0.2078819 1.108 255 127 0 255
-0.068590477 -0.2078819 1.108 255 127 0 255
-0.066480003 -0.2078819 1.108 255 127 0 255
-0.064369529 -0.2078819 1.108 255 127 0 255
-0.062259048 -0.2078819 1.108 255 127 0 255
-0.060365722 -0.20863241 1.1120001 255 127 0 255
-0.058247626 -0.20863241 1.1120001 255 127 0 255
-0.056129526 -0.20863241 1.1120001 255 127 0 255
-0.054011434 -0.20863241 1.1120001 255 127 0 255
-0.052220006 -0.20994572 1.1190001 255 127 0 255
-0.050088573 -0.20994572 1.1190001 255 127 0 255
-0.048128571 -0.21069619 1.123 255 127 0 255
-0.046112385 -0.21125905 1.126 255 127 0 255
-0.044280004 -0.21276 1.1340001 255 127 0 255
-0.042120002 -0.21276 1.1340001 255 127 0 255
-0.039960004 -0.21276 1.1340001 255 127 0 255
-0.037933335 -0.21351048 1.138 255 127 0 255
-0.035859998 -0.21407335 1.141 255 127 0 255
-0.033804763 -0.21482383 1.1450001 255 127 0 255
-0.031734288 -0.21557429 1.149 255 127 0 255
-0.029545715 -0.21557429 1.149 255 127 0 255
-0.027452381 -0.21632476 1.153 255 127 0 255
-0.025256189 -0.21632476 1.153 255 127 0 255
-0.02306 -0.21632476 1.153 255 127 0 255
-0.020863809 -0.21632476 1.153 255 127 0 255
-0.018667618 -0.21632476 1.153 255 127 0 255
-0.016471429 -0.21632476 1.153 255 127 0 255
-0.014275238 -0.21632476 1.153 255 127 0 255
-0.012079047 -0.21632476 1.153 255 127 0 255
-0.0098828571 -0.21632476 1.153 255 127 0 255
-0.0076866667 -0.21632476 1.153 255 127 0 255
-0.0054904758 -0.21632476 1.153 255 127 0 255
-0.0032942859 -0.21632476 1.153 255 127 0 255
-0.0010980952 -0.21632476 1.153 255 127 0 255
0.0011019048 -0.21707526 1.1570001 255 127 0 255
0.0033057143 -0.21707526 1.1570001 255 127 0 255
0.0055095241 -0.21707526 1.1570001 255 127 0 255
0.0077133342 -0.21707526 1.1570001 255 127 0 255
0.0099171428 -0.21707526 1.1570001 255 127 0 255
0.012120954 -0.21707526 1.1570001 255 127 0 255
0.014324762 -0.21707526 1.1570001 255 127 0 255
0.016528573 -0.21707526 1.1570001 255 127 0 255
0.018732382 -0.21707526 1.1570001 255 127 0 255
0.020936191 -0.21707526 1.1570001 255 127 0 255
0.02314 -0.21707526 1.1570001 255 127 0 255
0.025343811 -0.21707526 1.1570001 255 127 0 255
0.02754762 -0.21707526 1.1570001 255 127 0 255
0.029751431 -0.21707526 1.1570001 255 127 0 255
0.031955238 -0.21707526 1.1570001 255 127 0 255
0.034159049 -0.21707526 1.1570001 255 127 0 255
0.03636286 -0.21707526 1.1570001 255 127 0 255
0.038566668 -0.21707526 1.1570001 255 127 0 255
0.040770479 -0.21707526 1.1570001 255 127 0 255
0.042974286 -0.21707526 1.1570001 255 127 0 255
0.0451781 -0.21707526 1.1570001 255 127 0 255
0.047381908 -0.21707526 1.1570001 255 127 0 255
0.049414285 -0.21632476 1.153 255 127 0 255
0.051610474 -0.21632476 1.153 255 127 0 255
0.053806666 -0.21632476 1.153 255 127 0 255
0.056197144 -0.21707526 1.1570001 255 127 0 255
0.058400955 -0.21707526 1.1570001 255 127 0 255
0.060604762 -0.21707526 1.1570001 255 127 0 255
0.062808573 -0.21707526 1.1570001 255 127 0 255
0.06501238 -0.21707526 1.1570001 255 127 0 255
0.067216195 -0.21707526 1.1570001 255 127 0 255
0.069179997 -0.21632476 1.153 255 127 0 255
0.07137619 -0.21632476 1.153 255 127 0 255
0.073572382 -0.21632476 1.153 255 127 0 255
0.075768568 -0.21632476 1.153 255 127 0 255
0.078235239 -0.21707526 1.1570001 255 127 0 255
0.080439053 -0.21707526 1.1570001 255 127 0 255
0.082642861 -0.21707526 1.1570001 255 127 0 255
0.084846668 -0.21707526 1.1570001 255 127 0 255
0.087050483 -0.21707526 1.1570001 255 127 0 255
0.08925429 -0.21707526 1.1570001 255 127 0 255
0.091458097 -0.21707526 1.1570001 255 127 0 255
0.093661912 -0.21707526 1.1570001 255 127 0 255
0.095865719 -0.21707526 1.1570001 255 127 0 255
0.098069526 -0.21707526 1.1570001 255 127 0 255
0.10062 -0.21782571 1.161 255 127 0 255
0.10283143 -0.21782571 1.161 255 127 0 255
0.10504285 -0.21782571 1.161 255 127 0 255
0.10762382 -0.21857621 1.1650001 255 127 0 255
0.10984286 -0.21857621 1.1650001 255 127 0 255
-0.14477049 -0.19741431 1.0630001 255 127 0 255
-0.14274572 -0.19741431 1.0630001 255 127 0 255
-0.13757144 -0.19871429 1.0700001 255 127 0 255
-0.13553335 -0.19871429 1.0700001 255 127 0 255
-0.13349526 -0.19871429 1.0700001 255 127 0 255
-0.13231714 -0.20001428 1.077 255 127 0 255
-0.13026571 -0.20001428 1.077 255 127 0 255
-0.12857142 -0.20057143 1.08 255 127 0 255
-0.1265143 -0.20057143 1.08 255 127 0 255
-0.12491811 -0.2013143 1.0840001 255 127 0 255
-0.12319333 -0.20187142 1.087 255 127 0 255
-0.12112286 -0.20187142 1.087 255 127 0 255
-0.11905239 -0.20187142 1.087 255 127 0 255
-0.1169819 -0.20187142 1.087 255 127 0 255
-0.11491142 -0.20187142 1.087 255 127 0 255
-0.11284095 -0.20187142 1.087 255 127 0 255
-0.11077047 -0.20187142 1.087 255 127 0 255
-0.1087 -0.20187142 1.087 255 127 0 255
-0.10662952 -0.20187142 1.087 255 127 0 255
-0.10484762 -0.20242858 1.09 255 127 0 255
-0.10277143 -0.20242858 1.09 255 127 0 255
-0.10069524 -0.20242858 1.09 255 127 0 255
-0.098619051 -0.20242858 1.09 255 127 0 255
-0.096542858 -0.20242858 1.09 255 127 0 255
-0.094813339 -0.20317145 1.0940001 255 127 0 255
-0.092983812 -0.20372856 1.097 255 127 0 255
-0.091225713 -0.20447144 1.1010001 255 127 0 255
-0.089452386 -0.20521429 1.105 255 127 0 255
-0.087347619 -0.20521429 1.105 255 127 0 255
-0.08524286 -0.20521429 1.105 255 127 0 255
-0.083138093 -0.20521429 1.105 255 127 0 255
-0.081033334 -0.20521429 1.105 255 127 0 255
-0.078928567 -0.20521429 1.105 255 127 0 255
-0.076823808 -0.20521429 1.105 255 127 0 255
-0.074719049 -0.20521429 1.105 255 127 0 255
-0.072811432 -0.20577143 1.108 255 127 0 255
-0.070700951 -0.20577143 1.108 255 127 0 255
-0.068590477 -0.20577143 1.108 255 127 0 255
-0.066480003 -0.20577143 1.108 255 127 0 255
-0.064369529 -0.20577143 1.108 255 127 0 255
-0.062259048 -0.20577143 1.108 255 127 0 255
-0.060365722 -0.20651431 1.1120001 255 127 0 255
-0.058247626 -0.20651431 1.1120001 255 127 0 255
-0.056129526 -0.20651431 1.1120001 255 127 0 255
-0.054011434 -0.20651431 1.1120001 255 127 0 255
-0.052220006 -0.20781431 1.1190001 255 127 0 255
-0.050088573 -0.20781431 1.1190001 255 127 0 255
-0.048128571 -0.20855714 1.123 255 127 0 255
-0.045989525 -0.20855714 1.123 255 127 0 255
-0.044280004 -0.2106 1.1340001 255 127 0 255
-0.042120002 -0.2106 1.1340001 255 127 0 255
-0.039960004 -0.2106 1.1340001 255 127 0 255
-0.037933335 -0.21134286 1.138 255 127 0 255
-0.035985716 -0.21264288 1.1450001 255 127 0 255
-0.033804763 -0.21264288 1.1450001 255 127 0 255
-0.031734288 -0.21338572 1.149 255 127 0 255
-0.029648572 -0.21412857 1.153 255 127 0 255
-0.027452381 -0.21412857 1.153 255 127 0 255
-0.025256189 -0.21412857 1.153 255 127 0 255
-0.02306 -0.21412857 1.153 255 127 0 255
-0.020863809 -0.21412857 1.153 255 127 0 255
-0.018667618 -0.21412857 1.153 255 127 0 255
-0.016471429 -0.21412857 1.153 255 127 0 255
-0.014275238 -0.21412857 1.153 255 127 0 255
-0.012079047 -0.21412857 1.153 255 127 0 255
-0.0098828571 -0.21412857 1.153 255 127 0 255
-0.0076866667 -0.21412857 1.153 255 127 0 255
-0.0054904758 -0.21412857 1.153 255 127 0 255
-0.0032942859 -0.21412857 1.153 255 127 0 255
-0.0010980952 -0.21412857 1.153 255 127 0 255
0.0010980952 -0.21412857 1.153 255 127 0 255
0.0032942859 -0.21412857 1.153 255 127 0 255
0.0054904758 -0.21412857 1.153 255 127 0 255
0.0076866667 -0.21412857 1.153 255 127 0 255
0.0099171428 -0.21487144 1.1570001 255 127 0 255
0.012120954 -0.21487144 1.1570001 255 127 0 255
0.014324762 -0.21487144 1.1570001 255 127 0 255
0.016528573 -0.21487144 1.1570001 255 127 0 255
0.018732382 -0.21487144 1.1570001 255 127 0 255
0.020936191 -0.21487144 1.1570001 255 127 0 255
0.02314 -0.21487144 1.1570001 255 127 0 255
0.025343811 -0.21487144 1.1570001 255 127 0 255
0.02754762 -0.21487144 1.1570001 255 127 0 255
0.029751431 -0.21487144 1.1570001 255 127 0 255
0.031955238 -0.21487144 1.1570001 255 127 0 255
0.034159049 -0.21487144 1.1570001 255 127 0 255
0.03636286 -0.21487144 1.1570001 255 127 0 255
0.038566668 -0.21487144 1.1570001 255 127 0 255
0.040770479 -0.21487144 1.1570001 255 127 0 255
0.042974286 -0.21487144 1.1570001 255 127 0 255
0.0451781 -0.21487144 1.1570001 255 127 0 255
0.047381908 -0.21487144 1.1570001 255 127 0 255
0.049414285 -0.21412857 1.153 255 127 0 255
0.051610474 -0.21412857 1.153 255 127 0 255
0.053806666 -0.21412857 1.153 255 127 0 255
0.056197144 -0.21487144 1.1570001 255 127 0 255
0.058400955 -0.21487144 1.1570001 255 127 0 255
0.060604762 -0.21487144 1.1570001 255 127 0 255
0.062808573 -0.21487144 1.1570001 255 127 0 255
0.06501238 -0.21487144 1.1570001 255 127 0 255
0.067216195 -0.21487144 1.1570001 255 127 0 255
0.069179997 -0.21412857 1.153 255 127 0 255
0.07137619 -0.21412857 1.153 255 127 0 255
0.073572382 -0.21412857 1.153 255 127 0 255
0.075768568 -0.21412857 1.153 255 127 0 255
0.07796476 -0.21412857 1.153 255 127 0 255
0.080439053 -0.21487144 1.1570001 255 127 0 255
0.082642861 -0.21487144 1.1570001 255 127 0 255
0.084846668 -0.21487144 1.1570001 255 127 0 255
0.087050483 -0.21487144 1.1570001 255 127 0 255
0.08925429 -0.21487144 1.1570001 255 127 0 255
0.091458097 -0.21487144 1.1570001 255 127 0 255
0.093661912 -0.21487144 1.1570001 255 127 0 255
0.095865719 -0.21487144 1.1570001 255 127 0 255
0.098069526 -0.21487144 1.1570001 255 127 0 255
0.10062 -0.21561429 1.161 255 127 0 255
0.10283143 -0.21561429 1.161 255 127 0 255
0.10504285 -0.21561429 1.161 255 127 0 255
0.10762382 -0.21635716 1.1650001 255 127 0 255
0.10984286 -0.21635716 1.1650001 255 127 0 255
-0.12698287 -0.19924954 1.0840001 255 127 0 255
-0.12491811 -0.19924954 1.0840001 255 127 0 255
-0.12319333 -0.19980095 1.087 255 127 0 255
-0.12078858 -0.19924954 1.0840001 255 127 0 255
-0.11872382 -0.19924954 1.0840001 255 127 0 255
-0.11665906 -0.19924954 1.0840001 255 127 0 255
-0.11491142 -0.19980095 1.087 255 127 0 255
-0.11284095 -0.19980095 1.087 255 127 0 255
-0.11077047 -0.19980095 1.087 255 127 0 255
-0.1087 -0.19980095 1.087 255 127 0 255
-0.10692381 -0.20035239 1.09 255 127 0 255
-0.10484762 -0.20035239 1.09 255 127 0 255
-0.10277143 -0.20035239 1.09 255 127 0 255
-0.10069524 -0.20035239 1.09 255 127 0 255
-0.098619051 -0.20035239 1.09 255 127 0 255
-0.096542858 -0.20035239 1.09 255 127 0 255
-0.094813339 -0.20108762 1.0940001 255 127 0 255
-0.092983812 -0.20163904 1.097 255 127 0 255
-0.090894289 -0.20163904 1.097 255 127 0 255
-0.089452386 -0.20310952 1.105 255 127 0 255
-0.087347619 -0.20310952 1.105 255 127 0 255
-0.08524286 -0.20310952 1.105 255 127 0 255
-0.083138093 -0.20310952 1.105 255 127 0 255
-0.081033334 -0.20310952 1.105 255 127 0 255
-0.078928567 -0.20310952 1.105 255 127 0 255
-0.076823808 -0.20310952 1.105 255 127 0 255
-0.074719049 -0.20310952 1.105 255 127 0 255
-0.07261429 -0.20310952 1.105 255 127 0 255
-0.070509523 -0.20310952 1.105 255 127 0 255
-0.068404764 -0.20310952 1.105 255 127 0 255
-0.066480003 -0.20366096 1.108 255 127 0 255
-0.064369529 -0.20366096 1.108 255 127 0 255
-0.062259048 -0.20366096 1.108 255 127 0 255
-0.060365722 -0.20439622 1.1120001 255 127 0 255
-0.058247626 -0.20439622 1.1120001 255 127 0 255
-0.056129526 -0.20439622 1.1120001 255 127 0 255
-0.054011434 -0.20439622 1.1120001 255 127 0 255
-0.052220006 -0.20568286 1.1190001 255 127 0 255
-0.050088573 -0.20568286 1.1190001 255 127 0 255
-0.048128571 -0.2064181 1.123 255 127 0 255
-0.045989525 -0.2064181 1.123 255 127 0 255
-0.04443619 -0.20917524 1.138 255 127 0 255
-0.042268571 -0.20917524 1.138 255 127 0 255
-0.040100951 -0.20917524 1.138 255 127 0 255
-0.037933335 -0.20917524 1.138 255 127 0 255
-0.035765715 -0.20917524 1.138 255 127 0 255
-0.03404095 -0.21193239 1.153 255 127 0 255
-0.031844761 -0.21193239 1.153 255 127 0 255
-0.029648572 -0.21193239 1.153 255 127 0 255
-0.027452381 -0.21193239 1.153 255 127 0 255
-0.025256189 -0.21193239 1.153 255 127 0 255
-0.02306 -0.21193239 1.153 255 127 0 255
-0.020863809 -0.21193239 1.153 255 127 0 255
-0.018667618 -0.21193239 1.153 255 127 0 255
-0.016471429 -0.21193239 1.153 255 127 0 255
-0.014275238 -0.21193239 1.153 255 127 0 255
-0.012079047 -0.21193239 1.153 255 127 0 255
-0.0098828571 -0.21193239 1.153 255 127 0 255
-0.0076866667 -0.21193239 1.153 255 127 0 255
-0.0054904758 -0.21193239 1.153 255 127 0 255
-0.0032942859 -0.21193239 1.153 255 127 0 255
-0.0010980952 -0.21193239 1.153 255 127 0 255
0.0010980952 -0.21193239 1.153 255 127 0 255
0.0032942859 -0.21193239 1.153 255 127 0 255
0.0054904758 -0.21193239 1.153 255 127 0 255
0.0076866667 -0.21193239 1.153 255 127 0 255
0.0099171428 -0.21266763 1.1570001 255 127 0 255
0.012120954 -0.21266763 1.1570001 255 127 0 255
0.014324762 -0.21266763 1.1570001 255 127 0 255
0.016528573 -0.21266763 1.1570001 255 127 0 255
0.018732382 -0.21266763 1.1570001 255 127 0 255
0.020936191 -0.21266763 1.1570001 255 127 0 255
0.02314 -0.21266763 1.1570001 255 127 0 255
0.025343811 -0.21266763 1.1570001 255 127 0 255
0.02754762 -0.21266763 1.1570001 255 127 0 255
0.029751431 -0.21266763 1.1570001 255 127 0 255
0.031955238 -0.21266763 1.1570001 255 127 0 255
0.034159049 -0.21266763 1.1570001 255 127 0 255
0.03636286 -0.21266763 1.1570001 255 127 0 255
0.038566668 -0.21266763 1.1570001 255 127 0 255
0.040770479 -0.21266763 1.1570001 255 127 0 255
0.042974286 -0.21266763 1.1570001 255 127 0 255
0.0451781 -0.21266763 1.1570001 255 127 0 255
0.047381908 -0.21266763 1.1570001 255 127 0 255
0.049585715 -0.21266763 1.1570001 255 127 0 255
0.051610474 -0.21193239 1.153 255 127 0 255
0.053806666 -0.21193239 1.153 255 127 0 255
0.056002859 -0.21193239 1.153 255 127 0 255
0.058199048 -0.21193239 1.153 255 127 0 255
0.060395237 -0.21193239 1.153 255 127 0 255
0.062591426 -0.21193239 1.153 255 127 0 255
0.064787619 -0.21193239 1.153 255 127 0 255
0.066983812 -0.21193239 1.153 255 127 0 255
0.069179997 -0.21193239 1.153 255 127 0 255
0.07137619 -0.21193239 1.153 255 127 0 255
0.073572382 -0.21193239 1.153 255 127 0 255
0.075768568 -0.21193239 1.153 255 127 0 255
0.07796476 -0.21193239 1.153 255 127 0 255
0.080439053 -0.21266763 1.1570001 255 127 0 255
0.082642861 -0.21266763 1.1570001 255 127 0 255
0.084846668 -0.21266763 1.1570001 255 127 0 255
0.087050483 -0.21266763 1.1570001 255 127 0 255
0.08925429 -0.21266763 1.1570001 255 127 0 255
0.091458097 -0.21266763 1.1570001 255 127 0 255
0.093661912 -0.21266763 1.1570001 255 127 0 255
0.096197143 -0.21340285 1.161 255 127 0 255
0.098408572 -0.21340285 1.161 255 127 0 255
0.10062 -0.21340285 1.161 255 127 0 255
0.10283143 -0.21340285 1.161 255 127 0 255
0.10504285 -0.21340285 1.161 255 127 0 255
0.10762382 -0.21413811 1.1650001 255 127 0 255
0.10984286 -0.21413811 1.1650001 255 127 0 255
-0.12319333 -0.19773048 1.087 255 127 0 255
-0.12078858 -0.19718479 1.0840001 255 127 0 255
-0.11872382 -0.19718479 1.0840001 255 127 0 255
-0.11665906 -0.19718479 1.0840001 255 127 0 255
-0.11491142 -0.19773048 1.087 255 127 0 255
-0.11284095 -0.19773048 1.087 255 127 0 255
-0.10069524 -0.19827619 1.09 255 127 0 255
-0.098619051 -0.19827619 1.09 255 127 0 255
-0.096542858 -0.19827619 1.09 255 127 0 255
-0.095073335 -0.19954953 1.097 255 127 0 255
-0.092983812 -0.19954953 1.097 255 127 0 255
-0.090894289 -0.19954953 1.097 255 127 0 255
-0.089452386 -0.20100477 1.105 255 127 0 255
-0.087347619 -0.20100477 1.105 255 127 0 255
-0.08524286 -0.20100477 1.105 255 127 0 255
-0.083138093 -0.20100477 1.105 255 127 0 255
-0.081033334 -0.20100477 1.105 255 127 0 255
-0.078928567 -0.20100477 1.105 255 127 0 255
-0.076823808 -0.20100477 1.105 255 127 0 255
-0.074719049 -0.20100477 1.105 255 127 0 255
-0.07261429 -0.20100477 1.105 255 127 0 255
-0.070509523 -0.20100477 1.105 255 127 0 255
-0.068404764 -0.20100477 1.105 255 127 0 255
-0.066299997 -0.20100477 1.105 255 127 0 255
-0.064369529 -0.20155048 1.108 255 127 0 255
-0.062259048 -0.20155048 1.108 255 127 0 255
-0.060365722 -0.20227811 1.1120001 255 127 0 255
-0.058247626 -0.20227811 1.1120001 255 127 0 255
-0.056129526 -0.20227811 1.1120001 255 127 0 255
-0.054157145 -0.2028238 1.115 255 127 0 255
-0.052220006 -0.20355144 1.1190001 255 127 0 255
-0.050267622 -0.20427905 1.123 255 127 0 255
-0.048128571 -0.20427905 1.123 255 127 0 255
-0.045989525 -0.20427905 1.123 255 127 0 255
-0.04443619 -0.20700762 1.138 255 127 0 255
-0.042268571 -0.20700762 1.138 255 127 0 255
-0.040100951 -0.20700762 1.138 255 127 0 255
-0.031844761 -0.20973618 1.153 255 127 0 255
-0.029648572 -0.20973618 1.153 255 127 0 255
-0.027452381 -0.20973618 1.153 255 127 0 255
-0.025256189 -0.20973618 1.153 255 127 0 255
-0.02306 -0.20973618 1.153 255 127 0 255
-0.020863809 -0.20973618 1.153 255 127 0 255
-0.018667618 -0.20973618 1.153 255 127 0 255
-0.016471429 -0.20973618 1.153 255 127 0 255
-0.014275238 -0.20973618 1.153 255 127 0 255
-0.012079047 -0.20973618 1.153 255 127 0 255
-0.0098828571 -0.20973618 1.153 255 127 0 255
-0.0076866667 -0.20973618 1.153 255 127 0 255
-0.0054904758 -0.20973618 1.153 255 127 0 255
-0.0032942859 -0.20973618 1.153 255 127 0 255
-0.0010980952 -0.20973618 1.153 255 127 0 255
0.0010980952 -0.20973618 1.153 255 127 0 255
0.0032942859 -0.20973618 1.153 255 127 0 255
0.0054904758 -0.20973618 1.153 255 127 0 255
0.0076866667 -0.20973618 1.153 255 127 0 255
0.0098828571 -0.20973618 1.153 255 127 0 255
0.012079047 -0.20973618 1.153 255 127 0 255
0.014275238 -0.20973618 1.153 255 127 0 255
0.016471429 -0.20973618 1.153 255 127 0 255
0.018667618 -0.20973618 1.153 255 127 0 255
0.020863809 -0.20973618 1.153 255 127 0 255
0.02306 -0.20973618 1.153 255 127 0 255
0.025256189 -0.20973618 1.153 255 127 0 255
0.027452381 -0.20973618 1.153 255 127 0 255
0.029648572 -0.20973618 1.153 255 127 0 255
0.031844761 -0.20973618 1.153 255 127 0 255
0.034159049 -0.21046382 1.1570001 255 127 0 255
0.03636286 -0.21046382 1.1570001 255 127 0 255
0.038566668 -0.21046382 1.1570001 255 127 0 255
0.040770479 -0.21046382 1.1570001 255 127 0 255
0.042974286 -0.21046382 1.1570001 255 127 0 255
0.0451781 -0.21046382 1.1570001 255 127 0 255
0.047381908 -0.21046382 1.1570001 255 127 0 255
0.049585715 -0.21046382 1.1570001 255 127 0 255
0.051610474 -0.20973618 1.153 255 127 0 255
0.053806666 -0.20973618 1.153 255 127 0 255
0.056002859 -0.20973618 1.153 255 127 0 255
0.058199048 -0.20973618 1.153 255 127 0 255
0.060395237 -0.20973618 1.153 255 127 0 255
0.062591426 -0.20973618 1.153 255 127 0 255
0.064787619 -0.20973618 1.153 255 127 0 255
0.066983812 -0.20973618 1.153 255 127 0 255
0.069179997 -0.20973618 1.153 255 127 0 255
0.07137619 -0.20973618 1.153 255 127 0 255
0.073572382 -0.20973618 1.153 255 127 0 255
0.075768568 -0.20973618 1.153 255 127 0 255
0.07796476 -0.20973618 1.153 255 127 0 255
0.080160953 -0.20973618 1.153 255 127 0 255
0.082642861 -0.21046382 1.1570001 255 127 0 255
0.084846668 -0.21046382 1.1570001 255 127 0 255
0.087050483 -0.21046382 1.1570001 255 127 0 255
0.08925429 -0.21046382 1.1570001 255 127 0 255
0.091458097 -0.21046382 1.1570001 255 127 0 255
0.093661912 -0.21046382 1.1570001 255 127 0 255
0.095865719 -0.21046382 1.1570001 255 127 0 255
0.098069526 -0.21046382 1.1570001 255 127 0 255
0.10027333 -0.21046382 1.1570001 255 127 0 255
0.10247715 -0.21046382 1.1570001 255 127 0 255
0.10504285 -0.21119143 1.161 255 127 0 255
0.10725429 -0.21119143 1.161 255 127 0 255
0.10984286 -0.21191905 1.1650001 255 127 0 255
-0.089452386 -0.1989 1.105 255 127 0 255
-0.087347619 -0.1989 1.105 255 127 0 255
-0.08524286 -0.1989 1.105 255 127 0 255
-0.083138093 -0.1989 1.105 255 127 0 255
-0.081033334 -0.1989 1.105 255 127 0 255
-0.078928567 -0.1989 1.105 255 127 0 255
-0.076823808 -0.1989 1.105 255 127 0 255
-0.074719049 -0.1989 1.105 255 127 0 255
-0.07261429 -0.1989 1.105 255 127 0 255
-0.070509523 -0.1989 1.105 255 127 0 255
-0.068404764 -0.1989 1.105 255 127 0 255
-0.066299997 -0.1989 1.105 255 127 0 255
-0.064195238 -0.1989 1.105 255 127 0 255
-0.062259048 -0.19944 1.108 255 127 0 255
-0.060365722 -0.20016001 1.1120001 255 127 0 255
-0.058247626 -0.20016001 1.1120001 255 127 0 255
-0.056129526 -0.20016001 1.1120001 255 127 0 255
-0.054157145 -0.2007 1.115 255 127 0 255
-0.052220006 -0.20142001 1.1190001 255 127 0 255
-0.050267622 -0.20214 1.123 255 127 0 255
-0.048128571 -0.20214 1.123 255 127 0 255
-0.046112385 -0.20268001 1.126 255 127 0 255
-0.04443619 -0.20484 1.138 255 127 0 255
-0.042268571 -0.20484 1.138 255 127 0 255
-0.040100951 -0.20484 1.138 255 127 0 255
-0.037933335 -0.20484 1.138 255 127 0 255
-0.03404095 -0.20753999 1.153 255 127 0 255
-0.031844761 -0.20753999 1.153 255 127 0 255
-0.029648572 -0.20753999 1.153 255 127 0 255
-0.027452381 -0.20753999 1.153 255 127 0 255
-0.025256189 -0.20753999 1.153 255 127 0 255
-0.02306 -0.20753999 1.153 255 127 0 255
-0.020863809 -0.20753999 1.153 255 127 0 255
-0.018667618 -0.20753999 1.153 255 127 0 255
-0.016471429 -0.20753999 1.153 255 127 0 255
-0.014275238 -0.20753999 1.153 255 127 0 255
-0.012079047 -0.20753999 1.153 255 127 0 255
-0.0098828571 -0.20753999 1.153 255 127 0 255
-0.0076866667 -0.20753999 1.153 255 127 0 255
-0.0054904758 -0.20753999 1.153 255 127 0 255
-0.0032942859 -0.20753999 1.153 255 127 0 255
-0.0010980952 -0.20753999 1.153 255 127 0 255
0.0010980952 -0.20753999 1.153 255 127 0 255
0.0032942859 -0.20753999 1.153 255 127 0 255
0.0054904758 -0.20753999 1.153 255 127 0 255
0.0076866667 -0.20753999 1.153 255 127 0 255
0.0098828571 -0.20753999 1.153 255 127 0 255
0.012079047 -0.20753999 1.153 255 127 0 255
0.014275238 -0.20753999 1.153 255 127 0 255
0.016471429 -0.20753999 1.153 255 127 0 255
0.018667618 -0.20753999 1.153 255 127 0 255
0.020863809 -0.20753999 1.153 255 127 0 255
0.02306 -0.20753999 1.153 255 127 0 255
0.025256189 -0.20753999 1.153 255 127 0 255
0.027452381 -0.20753999 1.153 255 127 0 255
0.029648572 -0.20753999 1.153 255 127 0 255
0.031844761 -0.20753999 1.153 255 127 0 255
0.034159049 -0.20826001 1.1570001 255 127 0 255
0.03636286 -0.20826001 1.1570001 255 127 0 255
0.038566668 -0.20826001 1.1570001 255 127 0 255
0.040770479 -0.20826001 1.1570001 255 127 0 255
0.042825714 -0.20753999 1.153 255 127 0 255
0.045021903 -0.20753999 1.153 255 127 0 255
0.047218092 -0.20753999 1.153 255 127 0 255
0.049414285 -0.20753999 1.153 255 127 0 255
0.051610474 -0.20753999 1.153 255 127 0 255
0.053806666 -0.20753999 1.153 255 127 0 255
0.056002859 -0.20753999 1.153 255 127 0 255
0.058199048 -0.20753999 1.153 255 127 0 255
0.060395237 -0.20753999 1.153 255 127 0 255
0.062591426 -0.20753999 1.153 255 127 0 255
0.064787619 -0.20753999 1.153 255 127 0 255
0.066983812 -0.20753999 1.153 255 127 0 255
0.069179997 -0.20753999 1.153 255 127 0 255
0.07137619 -0.20753999 1.153 255 127 0 255
0.073572382 -0.20753999 1.153 255 127 0 255
0.075768568 -0.20753999 1.153 255 127 0 255
0.07796476 -0.20753999 1.153 255 127 0 255
0.080160953 -0.20753999 1.153 255 127 0 255
0.082357138 -0.20753999 1.153 255 127 0 255
0.084553331 -0.20753999 1.153 255 127 0 255
0.087050483 -0.20826001 1.1570001 255 127 0 255
0.088945709 -0.20753999 1.153 255 127 0 255
0.091141902 -0.20753999 1.153 255 127 0 255
0.093661912 -0.20826001 1.1570001 255 127 0 255
0.095865719 -0.20826001 1.1570001 255 127 0 255
0.098069526 -0.20826001 1.1570001 255 127 0 255
0.10027333 -0.20826001 1.1570001 255 127 0 255
0.10247715 -0.20826001 1.1570001 255 127 0 255
0.10468096 -0.20826001 1.1570001 255 127 0 255
0.10725429 -0.20897999 1.161 255 127 0 255
0.10946572 -0.20897999 1.161 255 127 0 255
0.11206191 -0.2097 1.1650001 255 127 0 255
-0.08524286 -0.19679524 1.105 255 127 0 255
-0.083138093 -0.19679524 1.105 255 127 0 255
-0.081033334 -0.19679524 1.105 255 127 0 255
-0.078928567 -0.19679524 1.105 255 127 0 255
-0.076823808 -0.19679524 1.105 255 127 0 255
-0.074719049 -0.19679524 1.105 255 127 0 255
-0.07261429 -0.19679524 1.105 255 127 0 255
-0.070509523 -0.19679524 1.105 255 127 0 255
-0.068404764 -0.19679524 1.105 255 127 0 255
-0.066299997 -0.19679524 1.105 255 127 0 255
-0.064195238 -0.19679524 1.105 255 127 0 255
-0.062259048 -0.19732954 1.108 255 127 0 255
-0.060365722 -0.19804192 1.1120001 255 127 0 255
-0.058247626 -0.19804192 1.1120001 255 127 0 255
-0.054545715 -0.20000096 1.123 255 127 0 255
-0.052406665 -0.20000096 1.123 255 127 0 255
-0.050401904 -0.20053525 1.126 255 127 0 255
-0.048257146 -0.20053525 1.126 255 127 0 255
-0.046112385 -0.20053525 1.126 255 127 0 255
-0.04443619 -0.20267238 1.138 255 127 0 255
-0.042268571 -0.20267238 1.138 255 127 0 255
-0.03404095 -0.2053438 1.153 255 127 0 255
-0.027452381 -0.2053438 1.153 255 127 0 255
-0.025256189 -0.2053438 1.153 255 127 0 255
-0.02306 -0.2053438 1.153 255 127 0 255
-0.020863809 -0.2053438 1.153 255 127 0 255
-0.018667618 -0.2053438 1.153 255 127 0 255
-0.016471429 -0.2053438 1.153 255 127 0 255
-0.014275238 -0.2053438 1.153 255 127 0 255
-0.012079047 -0.2053438 1.153 255 127 0 255
-0.0098828571 -0.2053438 1.153 255 127 0 255
-0.0076866667 -0.2053438 1.153 255 127 0 255
-0.0054904758 -0.2053438 1.153 255 127 0 255
-0.0032942859 -0.2053438 1.153 255 127 0 255
-0.0010980952 -0.2053438 1.153 255 127 0 255
0.0010980952 -0.2053438 1.153 255 127 0 255
0.0032942859 -0.2053438 1.153 255 127 0 255
0.0054904758 -0.2053438 1.153 255 127 0 255
0.0076866667 -0.2053438 1.153 255 127 0 255
0.0098828571 -0.2053438 1.153 255 127 0 255
0.012079047 -0.2053438 1.153 255 127 0 255
0.014275238 -0.2053438 1.153 255 127 0 255
0.016471429 -0.2053438 1.153 255 127 0 255
0.018667618 -0.2053438 1.153 255 127 0 255
0.020863809 -0.2053438 1.153 255 127 0 255
0.02306 -0.2053438 1.153 255 127 0 255
0.025256189 -0.2053438 1.153 255 127 0 255
0.027452381 -0.2053438 1.153 255 127 0 255
0.029648572 -0.2053438 1.153 255 127 0 255
0.031844761 -0.2053438 1.153 255 127 0 255
0.034159049 -0.20605619 1.1570001 255 127 0 255
0.03636286 -0.20605619 1.1570001 255 127 0 255
0.038566668 -0.20605619 1.1570001 255 127 0 255
0.040629521 -0.2053438 1.153 255 127 0 255
0.042825714 -0.2053438 1.153 255 127 0 255
0.045021903 -0.2053438 1.153 255 127 0 255
0.047218092 -0.2053438 1.153 255 127 0 255
0.049414285 -0.2053438 1.153 255 127 0 255
0.051610474 -0.2053438 1.153 255 127 0 255
0.053806666 -0.2053438 1.153 255 127 0 255
0.056002859 -0.2053438 1.153 255 127 0 255
0.058199048 -0.2053438 1.153 255 127 0 255
0.060395237 -0.2053438 1.153 255 127 0 255
0.062591426 -0.2053438 1.153 255 127 0 255
0.064787619 -0.2053438 1.153 255 127 0 255
0.066983812 -0.2053438 1.153 255 127 0 255
0.069179997 -0.2053438 1.153 255 127 0 255
0.07137619 -0.2053438 1.153 255 127 0 255
0.073572382 -0.2053438 1.153 255 127 0 255
0.075768568 -0.2053438 1.153 255 127 0 255
0.07796476 -0.2053438 1.153 255 127 0 255
0.080160953 -0.2053438 1.153 255 127 0 255
0.082357138 -0.2053438 1.153 255 127 0 255
0.084553331 -0.2053438 1.153 255 127 0 255
0.086749524 -0.2053438 1.153 255 127 0 255
0.088945709 -0.2053438 1.153 255 127 0 255
0.091141902 -0.2053438 1.153 255 127 0 255
0.093661912 -0.20605619 1.1570001 255 127 0 255
0.095865719 -0.20605619 1.1570001 255 127 0 255
0.098069526 -0.20605619 1.1570001 255 127 0 255
0.10027333 -0.20605619 1.1570001 255 127 0 255
0.10247715 -0.20605619 1.1570001 255 127 0 255
0.10468096 -0.20605619 1.1570001 255 127 0 255
0.10725429 -0.20676857 1.161 255 127 0 255
0.10946572 -0.20676857 1.161 255 127 0 255
0.11206191 -0.20748097 1.1650001 255 127 0 255
-0.054545715 -0.19786191 1.123 255 127 0 255
-0.052406665 -0.19786191 1.123 255 127 0 255
-0.050267622 -0.19786191 1.123 255 127 0 255
-0.02754762 -0.20385239 1.1570001 255 127 0 255
-0.025256189 -0.20314761 1.153 255 127 0 255
-0.02306 -0.20314761 1.153 255 127 0 255
-0.020863809 -0.20314761 1.153 255 127 0 255
-0.018667618 -0.20314761 1.153 255 127 0 255
-0.016471429 -0.20314761 1.153 255 127 0 255
-0.014275238 -0.20314761 1.153 255 127 0 255
-0.012079047 -0.20314761 1.153 255 127 0 255
