ply
format ascii 1.0
comment PCL generated
element vertex 1088
property float x
property float y
property float z
property uchar red
property uchar green
property uchar blue
property uchar alpha
element camera 0
property float view_px
property float view_py
property float view_pz
property float x_axisx
property float x_axisy
property float x_axisz
property float y_axisx
property float y_axisy
property float y_axisz
property float z_axisx
property float z_axisy
property float z_axisz
property float focal
property float scalex
property float scaley
property float centerx
property float centery
property int viewportx
property int viewporty
property float k1
property float k2
end_header
0.38160002 -0.39188573 1.08 166 86 40 255
0.38365716 -0.39188573 1.08 166 86 40 255
0.38571432 -0.39188573 1.08 166 86 40 255
0.38920763 -0.39333716 1.0840001 166 86 40 255
0.3912724 -0.39333716 1.0840001 166 86 40 255
0.39333716 -0.39333716 1.0840001 166 86 40 255
0.39540192 -0.39333716 1.0840001 166 86 40 255
0.39746672 -0.39333716 1.0840001 166 86 40 255
0.39953148 -0.39333716 1.0840001 166 86 40 255
0.40159625 -0.39333716 1.0840001 166 86 40 255
0.40217146 -0.39188573 1.08 166 86 40 255
0.40422857 -0.39188573 1.08 166 86 40 255
0.4062857 -0.39188573 1.08 166 86 40 255
0.40834287 -0.39188573 1.08 166 86 40 255
0.4104 -0.39188573 1.08 166 86 40 255
0.41245717 -0.39188573 1.08 166 86 40 255
0.4145143 -0.39188573 1.08 166 86 40 255
0.41657144 -0.39188573 1.08 166 86 40 255
0.4186286 -0.39188573 1.08 166 86 40 255
0.41951716 -0.39079714 1.077 166 86 40 255
0.42156857 -0.39079714 1.077 166 86 40 255
0.36102858 -0.38982856 1.08 166 86 40 255
0.36308572 -0.38982856 1.08 166 86 40 255
0.36514288 -0.38982856 1.08 166 86 40 255
0.36720002 -0.38982856 1.08 166 86 40 255
0.36925715 -0.38982856 1.08 166 86 40 255
0.37131429 -0.38982856 1.08 166 86 40 255
0.37337142 -0.38982856 1.08 166 86 40 255
0.37542859 -0.38982856 1.08 166 86 40 255
0.37888384 -0.3912724 1.0840001 166 86 40 255
0.3809486 -0.3912724 1.0840001 166 86 40 255
0.38160002 -0.38982856 1.08 166 86 40 255
0.38365716 -0.38982856 1.08 166 86 40 255
0.38571432 -0.38982856 1.08 166 86 40 255
0.38920763 -0.3912724 1.0840001 166 86 40 255
0.3912724 -0.3912724 1.0840001 166 86 40 255
0.39188573 -0.38982856 1.08 166 86 40 255
0.39394286 -0.38982856 1.08 166 86 40 255
0.39600003 -0.38982856 1.08 166 86 40 255
0.39805716 -0.38982856 1.08 166 86 40 255
0.4001143 -0.38982856 1.08 166 86 40 255
0.40217146 -0.38982856 1.08 166 86 40 255
0.40422857 -0.38982856 1.08 166 86 40 255
0.4062857 -0.38982856 1.08 166 86 40 255
0.40834287 -0.38982856 1.08 166 86 40 255
0.4104 -0.38982856 1.08 166 86 40 255
0.41245717 -0.38982856 1.08 166 86 40 255
0.4145143 -0.38982856 1.08 166 86 40 255
0.41657144 -0.38982856 1.08 166 86 40 255
0.4186286 -0.38982856 1.08 166 86 40 255
0.41951716 -0.38874573 1.077 166 86 40 255
0.42156857 -0.38874573 1.077 166 86 40 255
0.42361999 -0.38874573 1.077 166 86 40 255
0.36102858 -0.38777143 1.08 166 86 40 255
0.36308572 -0.38777143 1.08 166 86 40 255
0.36514288 -0.38777143 1.08 166 86 40 255
0.36720002 -0.38777143 1.08 166 86 40 255
0.36925715 -0.38777143 1.08 166 86 40 255
0.37131429 -0.38777143 1.08 166 86 40 255
0.37337142 -0.38777143 1.08 166 86 40 255
0.37542859 -0.38777143 1.08 166 86 40 255
0.37748572 -0.38777143 1.08 166 86 40 255
0.37954286 -0.38777143 1.08 166 86 40 255
0.38160002 -0.38777143 1.08 166 86 40 255
0.38365716 -0.38777143 1.08 166 86 40 255
0.38571432 -0.38777143 1.08 166 86 40 255
0.38920763 -0.38920763 1.0840001 166 86 40 255
0.3912724 -0.38920763 1.0840001 166 86 40 255
0.39188573 -0.38777143 1.08 166 86 40 255
0.39394286 -0.38777143 1.08 166 86 40 255
0.39600003 -0.38777143 1.08 166 86 40 255
0.39805716 -0.38777143 1.08 166 86 40 255
0.4001143 -0.38777143 1.08 166 86 40 255
0.40217146 -0.38777143 1.08 166 86 40 255
0.40422857 -0.38777143 1.08 166 86 40 255
0.4062857 -0.38777143 1.08 166 86 40 255
0.40834287 -0.38777143 1.08 166 86 40 255
0.4104 -0.38777143 1.08 166 86 40 255
0.41245717 -0.38777143 1.08 166 86 40 255
0.4145143 -0.38777143 1.08 166 86 40 255
0.41657144 -0.38777143 1.08 166 86 40 255
0.4186286 -0.38777143 1.08 166 86 40 255
0.41951716 -0.38669431 1.077 166 86 40 255
0.42156857 -0.38669431 1.077 166 86 40 255
0.42361999 -0.38669431 1.077 166 86 40 255
0.36236575 -0.3871429 1.0840001 166 86 40 255
0.36308572 -0.38571432 1.08 166 86 40 255
0.36514288 -0.38571432 1.08 166 86 40 255
0.36720002 -0.38571432 1.08 166 86 40 255
0.36925715 -0.38571432 1.08 166 86 40 255
0.37131429 -0.38571432 1.08 166 86 40 255
0.37337142 -0.38571432 1.08 166 86 40 255
0.37542859 -0.38571432 1.08 166 86 40 255
0.37748572 -0.38571432 1.08 166 86 40 255
0.37954286 -0.38571432 1.08 166 86 40 255
0.38301337 -0.3871429 1.0840001 166 86 40 255
0.38365716 -0.38571432 1.08 166 86 40 255
0.38571432 -0.38571432 1.08 166 86 40 255
0.38777143 -0.38571432 1.08 166 86 40 255
0.38982856 -0.38571432 1.08 166 86 40 255
0.39188573 -0.38571432 1.08 166 86 40 255
0.39394286 -0.38571432 1.08 166 86 40 255
0.39600003 -0.38571432 1.08 166 86 40 255
0.39805716 -0.38571432 1.08 166 86 40 255
0.4001143 -0.38571432 1.08 166 86 40 255
0.40217146 -0.38571432 1.08 166 86 40 255
0.40422857 -0.38571432 1.08 166 86 40 255
0.4062857 -0.38571432 1.08 166 86 40 255
0.40834287 -0.38571432 1.08 166 86 40 255
0.4104 -0.38571432 1.08 166 86 40 255
0.41245717 -0.38571432 1.08 166 86 40 255
0.4145143 -0.38571432 1.08 166 86 40 255
0.41657144 -0.38571432 1.08 166 86 40 255
0.4186286 -0.38571432 1.08 166 86 40 255
0.42068574 -0.38571432 1.08 166 86 40 255
0.42274284 -0.38571432 1.08 166 86 40 255
0.42480001 -0.38571432 1.08 166 86 40 255
0.36595145 -0.39111719 1.1010001 166 86 40 255
0.36236575 -0.38507813 1.0840001 166 86 40 255
0.36308572 -0.38365716 1.08 166 86 40 255
0.36514288 -0.38365716 1.08 166 86 40 255
0.36720002 -0.38365716 1.08 166 86 40 255
0.36925715 -0.38365716 1.08 166 86 40 255
0.37131429 -0.38365716 1.08 166 86 40 255
0.37337142 -0.38365716 1.08 166 86 40 255
0.37542859 -0.38365716 1.08 166 86 40 255
0.37748572 -0.38365716 1.08 166 86 40 255
0.37954286 -0.38365716 1.08 166 86 40 255
0.38160002 -0.38365716 1.08 166 86 40 255
0.38365716 -0.38365716 1.08 166 86 40 255
0.38571432 -0.38365716 1.08 166 86 40 255
0.38777143 -0.38365716 1.08 166 86 40 255
0.38982856 -0.38365716 1.08 166 86 40 255
0.39188573 -0.38365716 1.08 166 86 40 255
0.39394286 -0.38365716 1.08 166 86 40 255
0.39600003 -0.38365716 1.08 166 86 40 255
0.39805716 -0.38365716 1.08 166 86 40 255
0.4001143 -0.38365716 1.08 166 86 40 255
0.40217146 -0.38365716 1.08 166 86 40 255
0.40422857 -0.38365716 1.08 166 86 40 255
0.4062857 -0.38365716 1.08 166 86 40 255
0.40834287 -0.38365716 1.08 166 86 40 255
0.4104 -0.38365716 1.08 166 86 40 255
0.41245717 -0.38365716 1.08 166 86 40 255
0.4145143 -0.38365716 1.08 166 86 40 255
0.41657144 -0.38365716 1.08 166 86 40 255
0.4201791 -0.38507813 1.0840001 166 86 40 255
0.42068574 -0.38365716 1.08 166 86 40 255
0.42274284 -0.38365716 1.08 166 86 40 255
0.42480001 -0.38365716 1.08 166 86 40 255
0.36612001 -0.40068001 1.1340001 166 86 40 255
0.36595145 -0.38902003 1.1010001 166 86 40 255
0.36336857 -0.38407335 1.087 166 86 40 255
0.36443052 -0.38301337 1.0840001 166 86 40 255
0.36514288 -0.38160002 1.08 166 86 40 255
0.36720002 -0.38160002 1.08 166 86 40 255
0.36925715 -0.38160002 1.08 166 86 40 255
0.37131429 -0.38160002 1.08 166 86 40 255
0.37337142 -0.38160002 1.08 166 86 40 255
0.37542859 -0.38160002 1.08 166 86 40 255
0.37748572 -0.38160002 1.08 166 86 40 255
0.37954286 -0.38160002 1.08 166 86 40 255
0.38160002 -0.38160002 1.08 166 86 40 255
0.38365716 -0.38160002 1.08 166 86 40 255
0.38571432 -0.38160002 1.08 166 86 40 255
0.38777143 -0.38160002 1.08 166 86 40 255
0.38982856 -0.38160002 1.08 166 86 40 255
0.39188573 -0.38160002 1.08 166 86 40 255
0.39394286 -0.38160002 1.08 166 86 40 255
0.39600003 -0.38160002 1.08 166 86 40 255
0.39805716 -0.38160002 1.08 166 86 40 255
0.4001143 -0.38160002 1.08 166 86 40 255
0.40217146 -0.38160002 1.08 166 86 40 255
0.40422857 -0.38160002 1.08 166 86 40 255
0.4062857 -0.38160002 1.08 166 86 40 255
0.40834287 -0.38160002 1.08 166 86 40 255
0.4104 -0.38160002 1.08 166 86 40 255
0.41245717 -0.38160002 1.08 166 86 40 255
0.4145143 -0.38160002 1.08 166 86 40 255
0.41811433 -0.38301337 1.0840001 166 86 40 255
0.4201791 -0.38301337 1.0840001 166 86 40 255
0.42224386 -0.38301337 1.0840001 166 86 40 255
0.4243086 -0.38301337 1.0840001 166 86 40 255
0.35968667 -0.40098003 1.141 166 86 40 255
0.36090857 -0.39992571 1.138 166 86 40 255
0.36307621 -0.39992571 1.138 166 86 40 255
0.36524382 -0.39992571 1.138 166 86 40 255
0.36612001 -0.39852002 1.1340001 166 86 40 255
0.36698094 -0.39711428 1.13 166 86 40 255
0.36913332 -0.39711428 1.13 166 86 40 255
0.37128571 -0.39711428 1.13 166 86 40 255
0.36595145 -0.38692287 1.1010001 166 86 40 255
0.36437145 -0.38305715 1.09 166 86 40 255
0.36443052 -0.3809486 1.0840001 166 86 40 255
0.36649528 -0.3809486 1.0840001 166 86 40 255
0.36856005 -0.3809486 1.0840001 166 86 40 255
0.37062478 -0.3809486 1.0840001 166 86 40 255
0.37131429 -0.37954286 1.08 166 86 40 255
0.37337142 -0.37954286 1.08 166 86 40 255
0.37542859 -0.37954286 1.08 166 86 40 255
0.37748572 -0.37954286 1.08 166 86 40 255
0.3809486 -0.3809486 1.0840001 166 86 40 255
0.38160002 -0.37954286 1.08 166 86 40 255
0.38365716 -0.37954286 1.08 166 86 40 255
0.38571432 -0.37954286 1.08 166 86 40 255
0.38777143 -0.37954286 1.08 166 86 40 255
0.38982856 -0.37954286 1.08 166 86 40 255
0.39188573 -0.37954286 1.08 166 86 40 255
0.39394286 -0.37954286 1.08 166 86 40 255
0.39600003 -0.37954286 1.08 166 86 40 255
0.39805716 -0.37954286 1.08 166 86 40 255
0.4001143 -0.37954286 1.08 166 86 40 255
0.40217146 -0.37954286 1.08 166 86 40 255
0.40422857 -0.37954286 1.08 166 86 40 255
0.4062857 -0.37954286 1.08 166 86 40 255
0.40834287 -0.37954286 1.08 166 86 40 255
0.4104 -0.37954286 1.08 166 86 40 255
0.41245717 -0.37954286 1.08 166 86 40 255
0.41604957 -0.3809486 1.0840001 166 86 40 255
0.41811433 -0.3809486 1.0840001 166 86 40 255
0.4201791 -0.3809486 1.0840001 166 86 40 255
0.42224386 -0.3809486 1.0840001 166 86 40 255
0.4243086 -0.3809486 1.0840001 166 86 40 255
0.35751334 -0.39880666 1.141 166 86 40 255
0.35968667 -0.39880666 1.141 166 86 40 255
0.36090857 -0.3977581 1.138 166 86 40 255
0.36307621 -0.3977581 1.138 166 86 40 255
0.36524382 -0.3977581 1.138 166 86 40 255
0.36612001 -0.39636001 1.1340001 166 86 40 255
0.36698094 -0.39496189 1.13 166 86 40 255
0.36913332 -0.39496189 1.13 166 86 40 255
0.37128571 -0.39496189 1.13 166 86 40 255
0.37343809 -0.39496189 1.13 166 86 40 255
0.36229524 -0.38098094 1.09 166 86 40 255
0.36437145 -0.38098094 1.09 166 86 40 255
0.36443052 -0.37888384 1.0840001 166 86 40 255
0.36649528 -0.37888384 1.0840001 166 86 40 255
0.36856005 -0.37888384 1.0840001 166 86 40 255
0.37062478 -0.37888384 1.0840001 166 86 40 255
0.37268955 -0.37888384 1.0840001 166 86 40 255
0.37475431 -0.37888384 1.0840001 166 86 40 255
0.37681907 -0.37888384 1.0840001 166 86 40 255
0.37888384 -0.37888384 1.0840001 166 86 40 255
0.3809486 -0.37888384 1.0840001 166 86 40 255
0.38160002 -0.37748572 1.08 166 86 40 255
0.38365716 -0.37748572 1.08 166 86 40 255
0.38571432 -0.37748572 1.08 166 86 40 255
0.38777143 -0.37748572 1.08 166 86 40 255
0.38874573 -0.37643713 1.077 166 86 40 255
0.39079714 -0.37643713 1.077 166 86 40 255
0.39394286 -0.37748572 1.08 166 86 40 255
0.39600003 -0.37748572 1.08 166 86 40 255
0.39805716 -0.37748572 1.08 166 86 40 255
0.4001143 -0.37748572 1.08 166 86 40 255
0.40217146 -0.37748572 1.08 166 86 40 255
0.40422857 -0.37748572 1.08 166 86 40 255
0.4062857 -0.37748572 1.08 166 86 40 255
0.40834287 -0.37748572 1.08 166 86 40 255
0.4104 -0.37748572 1.08 166 86 40 255
0.41245717 -0.37748572 1.08 166 86 40 255
0.4145143 -0.37748572 1.08 166 86 40 255
0.41811433 -0.37888384 1.0840001 166 86 40 255
0.4186286 -0.37748572 1.08 166 86 40 255
0.42068574 -0.37748572 1.08 166 86 40 255
0.42274284 -0.37748572 1.08 166 86 40 255
0.35751334 -0.39663336 1.141 166 86 40 255
0.35874096 -0.39559045 1.138 166 86 40 255
0.36090857 -0.39559045 1.138 166 86 40 255
0.36307621 -0.39559045 1.138 166 86 40 255
0.36524382 -0.39559045 1.138 166 86 40 255
0.36612001 -0.39420003 1.1340001 166 86 40 255
0.36828002 -0.39420003 1.1340001 166 86 40 255
0.36913332 -0.39280954 1.13 166 86 40 255
0.36898571 -0.39037621 1.123 166 86 40 255
0.36848095 -0.38759524 1.115 166 86 40 255
0.36462191 -0.38133809 1.097 166 86 40 255
0.36437145 -0.37890476 1.09 166 86 40 255
0.36443052 -0.37681907 1.0840001 166 86 40 255
0.36649528 -0.37681907 1.0840001 166 86 40 255
0.36856005 -0.37681907 1.0840001 166 86 40 255
0.37062478 -0.37681907 1.0840001 166 86 40 255
0.37268955 -0.37681907 1.0840001 166 86 40 255
0.37475431 -0.37681907 1.0840001 166 86 40 255
0.37542859 -0.37542859 1.08 166 86 40 255
0.37748572 -0.37542859 1.08 166 86 40 255
0.37954286 -0.37542859 1.08 166 86 40 255
0.38160002 -0.37542859 1.08 166 86 40 255
0.38365716 -0.37542859 1.08 166 86 40 255
0.38571432 -0.37542859 1.08 166 86 40 255
0.38777143 -0.37542859 1.08 166 86 40 255
0.38874573 -0.37438571 1.077 166 86 40 255
0.39079714 -0.37438571 1.077 166 86 40 255
0.39394286 -0.37542859 1.08 166 86 40 255
0.39600003 -0.37542859 1.08 166 86 40 255
0.39805716 -0.37542859 1.08 166 86 40 255
0.4001143 -0.37542859 1.08 166 86 40 255
0.40217146 -0.37542859 1.08 166 86 40 255
0.40422857 -0.37542859 1.08 166 86 40 255
0.4062857 -0.37542859 1.08 166 86 40 255
0.40834287 -0.37542859 1.08 166 86 40 255
0.4104 -0.37542859 1.08 166 86 40 255
0.41245717 -0.37542859 1.08 166 86 40 255
0.4145143 -0.37542859 1.08 166 86 40 255
0.41811433 -0.37681907 1.0840001 166 86 40 255
0.4186286 -0.37542859 1.08 166 86 40 255
0.42068574 -0.37542859 1.08 166 86 40 255
0.42274284 -0.37542859 1.08 166 86 40 255
0.35534003 -0.39446002 1.141 166 86 40 255
0.35657334 -0.39342284 1.138 166 86 40 255
0.35874096 -0.39342284 1.138 166 86 40 255
0.36090857 -0.39342284 1.138 166 86 40 255
0.36307621 -0.39342284 1.138 166 86 40 255
0.36524382 -0.39342284 1.138 166 86 40 255
0.36612001 -0.39204001 1.1340001 166 86 40 255
0.36828002 -0.39204001 1.1340001 166 86 40 255
0.36913332 -0.39065713 1.13 166 86 40 255
0.36898571 -0.38823715 1.123 166 86 40 255
0.36848095 -0.38547143 1.115 166 86 40 255
0.36462191 -0.37924856 1.097 166 86 40 255
0.36570862 -0.37821147 1.0940001 166 86 40 255
0.36543903 -0.37579143 1.087 166 86 40 255
0.36750954 -0.37579143 1.087 166 86 40 255
0.36856005 -0.37475431 1.0840001 166 86 40 255
0.36925715 -0.37337142 1.08 166 86 40 255
0.37131429 -0.37337142 1.08 166 86 40 255
0.37337142 -0.37337142 1.08 166 86 40 255
0.37542859 -0.37337142 1.08 166 86 40 255
0.37748572 -0.37337142 1.08 166 86 40 255
0.37954286 -0.37337142 1.08 166 86 40 255
0.38160002 -0.37337142 1.08 166 86 40 255
0.38365716 -0.37337142 1.08 166 86 40 255
0.38571432 -0.37337142 1.08 166 86 40 255
0.38777143 -0.37337142 1.08 166 86 40 255
0.38982856 -0.37337142 1.08 166 86 40 255
0.39188573 -0.37337142 1.08 166 86 40 255
0.39394286 -0.37337142 1.08 166 86 40 255
0.39600003 -0.37337142 1.08 166 86 40 255
0.39805716 -0.37337142 1.08 166 86 40 255
0.4001143 -0.37337142 1.08 166 86 40 255
0.40217146 -0.37337142 1.08 166 86 40 255
0.40422857 -0.37337142 1.08 166 86 40 255
0.4062857 -0.37337142 1.08 166 86 40 255
0.40834287 -0.37337142 1.08 166 86 40 255
0.4104 -0.37337142 1.08 166 86 40 255
0.41398481 -0.37475431 1.0840001 166 86 40 255
0.41604957 -0.37475431 1.0840001 166 86 40 255
0.41811433 -0.37475431 1.0840001 166 86 40 255
0.4201791 -0.37475431 1.0840001 166 86 40 255
0.42224386 -0.37475431 1.0840001 166 86 40 255
0.35440573 -0.39125523 1.138 166 86 40 255
0.35657334 -0.39125523 1.138 166 86 40 255
0.35874096 -0.39125523 1.138 166 86 40 255
0.36090857 -0.39125523 1.138 166 86 40 255
0.36307621 -0.39125523 1.138 166 86 40 255
0.36524382 -0.39125523 1.138 166 86 40 255
0.36612001 -0.38988003 1.1340001 166 86 40 255
0.36828002 -0.38988003 1.1340001 166 86 40 255
0.36913332 -0.38850474 1.13 166 86 40 255
0.36898571 -0.38609812 1.123 166 86 40 255
0.36848095 -0.38334763 1.115 166 86 40 255
0.36595145 -0.37853432 1.1010001 166 86 40 255
0.36671141 -0.37715903 1.097 166 86 40 255
0.36644763 -0.3747524 1.09 166 86 40 255
0.36750954 -0.37372097 1.087 166 86 40 255
0.36856005 -0.37268955 1.0840001 166 86 40 255
0.36925715 -0.37131429 1.08 166 86 40 255
0.37131429 -0.37131429 1.08 166 86 40 255
0.37337142 -0.37131429 1.08 166 86 40 255
0.37542859 -0.37131429 1.08 166 86 40 255
0.37748572 -0.37131429 1.08 166 86 40 255
0.37954286 -0.37131429 1.08 166 86 40 255
0.38160002 -0.37131429 1.08 166 86 40 255
0.38365716 -0.37131429 1.08 166 86 40 255
0.38571432 -0.37131429 1.08 166 86 40 255
0.38777143 -0.37131429 1.08 166 86 40 255
0.38874573 -0.37028286 1.077 166 86 40 255
0.39079714 -0.37028286 1.077 166 86 40 255
0.39394286 -0.37131429 1.08 166 86 40 255
0.39600003 -0.37131429 1.08 166 86 40 255
0.39805716 -0.37131429 1.08 166 86 40 255
0.4001143 -0.37131429 1.08 166 86 40 255
0.40217146 -0.37131429 1.08 166 86 40 255
0.40422857 -0.37131429 1.08 166 86 40 255
0.4062857 -0.37131429 1.08 166 86 40 255
0.40834287 -0.37131429 1.08 166 86 40 255
0.4104 -0.37131429 1.08 166 86 40 255
0.41245717 -0.37131429 1.08 166 86 40 255
0.41604957 -0.37268955 1.0840001 166 86 40 255
0.41811433 -0.37268955 1.0840001 166 86 40 255
0.4201791 -0.37268955 1.0840001 166 86 40 255
0.42224386 -0.37268955 1.0840001 166 86 40 255
0.35316667 -0.39011335 1.141 166 86 40 255
0.35440573 -0.38908762 1.138 166 86 40 255
0.35657334 -0.38908762 1.138 166 86 40 255
0.35874096 -0.38908762 1.138 166 86 40 255
0.36090857 -0.38908762 1.138 166 86 40 255
0.36307621 -0.38908762 1.138 166 86 40 255
0.36396003 -0.38772002 1.1340001 166 86 40 255
0.36612001 -0.38772002 1.1340001 166 86 40 255
0.36828002 -0.38772002 1.1340001 166 86 40 255
0.36913332 -0.38635239 1.13 166 86 40 255
0.36898571 -0.38395905 1.123 166 86 40 255
0.36848095 -0.3812238 1.115 166 86 40 255
0.36728096 -0.37780476 1.105 166 86 40 255
0.36804858 -0.37643716 1.1010001 166 86 40 255
0.36880094 -0.37506953 1.097 166 86 40 255
0.36852381 -0.37267619 1.09 166 86 40 255
0.36958 -0.37165049 1.087 166 86 40 255
0.37062478 -0.37062478 1.0840001 166 86 40 255
0.37268955 -0.37062478 1.0840001 166 86 40 255
0.37475431 -0.37062478 1.0840001 166 86 40 255
0.37681907 -0.37062478 1.0840001 166 86 40 255
0.37748572 -0.36925715 1.08 166 86 40 255
0.37954286 -0.36925715 1.08 166 86 40 255
0.38160002 -0.36925715 1.08 166 86 40 255
0.38365716 -0.36925715 1.08 166 86 40 255
0.38571432 -0.36925715 1.08 166 86 40 255
0.38777143 -0.36925715 1.08 166 86 40 255
0.38874573 -0.36823142 1.077 166 86 40 255
0.39079714 -0.36823142 1.077 166 86 40 255
0.39394286 -0.36925715 1.08 166 86 40 255
0.39600003 -0.36925715 1.08 166 86 40 255
0.39805716 -0.36925715 1.08 166 86 40 255
0.4001143 -0.36925715 1.08 166 86 40 255
0.40105426 -0.36823142 1.077 166 86 40 255
0.40310574 -0.36823142 1.077 166 86 40 255
0.4062857 -0.36925715 1.08 166 86 40 255
0.40834287 -0.36925715 1.08 166 86 40 255
0.4104 -0.36925715 1.08 166 86 40 255
0.41245717 -0.36925715 1.08 166 86 40 255
0.4145143 -0.36925715 1.08 166 86 40 255
0.41657144 -0.36925715 1.08 166 86 40 255
0.4213419 -0.37165049 1.087 166 86 40 255
0.35316667 -0.38793999 1.141 166 86 40 255
0.35440573 -0.38691998 1.138 166 86 40 255
0.35657334 -0.38691998 1.138 166 86 40 255
0.35874096 -0.38691998 1.138 166 86 40 255
0.36090857 -0.38691998 1.138 166 86 40 255
0.36307621 -0.38691998 1.138 166 86 40 255
0.36396003 -0.38556001 1.1340001 166 86 40 255
0.36612001 -0.38556001 1.1340001 166 86 40 255
0.36828002 -0.38556001 1.1340001 166 86 40 255
0.36913332 -0.38420001 1.13 166 86 40 255
0.36997142 -0.38284001 1.126 166 86 40 255
0.36748958 -0.37808004 1.1120001 166 86 40 255
0.36728096 -0.3757 1.105 166 86 40 255
0.36804858 -0.37434003 1.1010001 166 86 40 255
0.37014574 -0.37434003 1.1010001 166 86 40 255
0.36987621 -0.37196004 1.0940001 166 86 40 255
0.37060001 -0.37060001 1.09 166 86 40 255
0.37165049 -0.36958 1.087 166 86 40 255
0.37268955 -0.36856005 1.0840001 166 86 40 255
0.37475431 -0.36856005 1.0840001 166 86 40 255
0.37681907 -0.36856005 1.0840001 166 86 40 255
0.37748572 -0.36720002 1.08 166 86 40 255
0.37954286 -0.36720002 1.08 166 86 40 255
0.38160002 -0.36720002 1.08 166 86 40 255
0.38365716 -0.36720002 1.08 166 86 40 255
0.38571432 -0.36720002 1.08 166 86 40 255
0.38669431 -0.36618 1.077 166 86 40 255
0.38874573 -0.36618 1.077 166 86 40 255
0.39079714 -0.36618 1.077 166 86 40 255
0.39284855 -0.36618 1.077 166 86 40 255
0.39490002 -0.36618 1.077 166 86 40 255
0.39695144 -0.36618 1.077 166 86 40 255
0.39900285 -0.36618 1.077 166 86 40 255
0.40105426 -0.36618 1.077 166 86 40 255
0.40310574 -0.36618 1.077 166 86 40 255
0.4062857 -0.36720002 1.08 166 86 40 255
0.40720856 -0.36618 1.077 166 86 40 255
0.40926 -0.36618 1.077 166 86 40 255
0.41131145 -0.36618 1.077 166 86 40 255
0.41336286 -0.36618 1.077 166 86 40 255
0.41541427 -0.36618 1.077 166 86 40 255
0.41746572 -0.36618 1.077 166 86 40 255
0.35316667 -0.38576669 1.141 166 86 40 255
0.35440573 -0.38475236 1.138 166 86 40 255
0.35657334 -0.38475236 1.138 166 86 40 255
0.35874096 -0.38475236 1.138 166 86 40 255
0.36090857 -0.38475236 1.138 166 86 40 255
0.36307621 -0.38475236 1.138 166 86 40 255
0.36396003 -0.38339999 1.1340001 166 86 40 255
0.36612001 -0.38339999 1.1340001 166 86 40 255
0.36828002 -0.38339999 1.1340001 166 86 40 255
0.36913332 -0.38204762 1.13 166 86 40 255
0.37128571 -0.38204762 1.13 166 86 40 255
0.36748958 -0.37596193 1.1120001 166 86 40 255
0.36728096 -0.37359524 1.105 166 86 40 255
0.36804858 -0.37224287 1.1010001 166 86 40 255
0.36880094 -0.37089047 1.097 166 86 40 255
0.36987621 -0.36987621 1.0940001 166 86 40 255
0.37196004 -0.36987621 1.0940001 166 86 40 255
0.37267619 -0.36852381 1.09 166 86 40 255
0.37372097 -0.36750954 1.087 166 86 40 255
0.37475431 -0.36649528 1.0840001 166 86 40 255
0.37681907 -0.36649528 1.0840001 166 86 40 255
0.37748572 -0.36514288 1.08 166 86 40 255
0.37954286 -0.36514288 1.08 166 86 40 255
0.38160002 -0.36514288 1.08 166 86 40 255
0.38365716 -0.36514288 1.08 166 86 40 255
0.38571432 -0.36514288 1.08 166 86 40 255
0.38669431 -0.36412859 1.077 166 86 40 255
0.38874573 -0.36412859 1.077 166 86 40 255
0.39079714 -0.36412859 1.077 166 86 40 255
0.39284855 -0.36412859 1.077 166 86 40 255
0.39490002 -0.36412859 1.077 166 86 40 255
0.39695144 -0.36412859 1.077 166 86 40 255
0.39900285 -0.36412859 1.077 166 86 40 255
0.40105426 -0.36412859 1.077 166 86 40 255
0.40310574 -0.36412859 1.077 166 86 40 255
0.4062857 -0.36514288 1.08 166 86 40 255
0.40720856 -0.36412859 1.077 166 86 40 255
0.40926 -0.36412859 1.077 166 86 40 255
0.41131145 -0.36412859 1.077 166 86 40 255
0.41336286 -0.36412859 1.077 166 86 40 255
0.41541427 -0.36412859 1.077 166 86 40 255
0.41746572 -0.36412859 1.077 166 86 40 255
0.35222381 -0.38493812 1.1450001 166 86 40 255
0.35316667 -0.38359335 1.141 166 86 40 255
0.35440573 -0.38258475 1.138 166 86 40 255
0.35657334 -0.38258475 1.138 166 86 40 255
0.35874096 -0.38258475 1.138 166 86 40 255
0.36090857 -0.38258475 1.138 166 86 40 255
0.36180001 -0.38124004 1.1340001 166 86 40 255
0.36396003 -0.38124004 1.1340001 166 86 40 255
0.36612001 -0.38124004 1.1340001 166 86 40 255
0.36828002 -0.38124004 1.1340001 166 86 40 255
0.36913332 -0.37989521 1.13 166 86 40 255
0.36898571 -0.3775419 1.123 166 86 40 255
0.36748958 -0.37384385 1.1120001 166 86 40 255
0.36728096 -0.37149048 1.105 166 86 40 255
0.36804858 -0.37014574 1.1010001 166 86 40 255
0.36880094 -0.36880094 1.097 166 86 40 255
0.36987621 -0.3677924 1.0940001 166 86 40 255
0.37196004 -0.3677924 1.0940001 166 86 40 255
0.37165049 -0.36543903 1.087 166 86 40 255
0.37268955 -0.36443052 1.0840001 166 86 40 255
0.37475431 -0.36443052 1.0840001 166 86 40 255
0.37681907 -0.36443052 1.0840001 166 86 40 255
0.37748572 -0.36308572 1.08 166 86 40 255
0.37954286 -0.36308572 1.08 166 86 40 255
0.38160002 -0.36308572 1.08 166 86 40 255
0.38365716 -0.36308572 1.08 166 86 40 255
0.38571432 -0.36308572 1.08 166 86 40 255
0.38777143 -0.36308572 1.08 166 86 40 255
0.38982856 -0.36308572 1.08 166 86 40 255
0.39188573 -0.36308572 1.08 166 86 40 255
0.39394286 -0.36308572 1.08 166 86 40 255
0.39600003 -0.36308572 1.08 166 86 40 255
0.39805716 -0.36308572 1.08 166 86 40 255
0.39900285 -0.36207715 1.077 166 86 40 255
0.40105426 -0.36207715 1.077 166 86 40 255
0.40310574 -0.36207715 1.077 166 86 40 255
0.4062857 -0.36308572 1.08 166 86 40 255
0.40834287 -0.36308572 1.08 166 86 40 255
0.4104 -0.36308572 1.08 166 86 40 255
0.41245717 -0.36308572 1.08 166 86 40 255
0.41336286 -0.36207715 1.077 166 86 40 255
0.41541427 -0.36207715 1.077 166 86 40 255
0.35222381 -0.38275719 1.1450001 166 86 40 255
0.35316667 -0.38141999 1.141 166 86 40 255
0.35440573 -0.38041717 1.138 166 86 40 255
0.35657334 -0.38041717 1.138 166 86 40 255
0.35874096 -0.38041717 1.138 166 86 40 255
0.36090857 -0.38041717 1.138 166 86 40 255
0.36180001 -0.37908003 1.1340001 166 86 40 255
0.36396003 -0.37908003 1.1340001 166 86 40 255
0.36612001 -0.37908003 1.1340001 166 86 40 255
0.36698094 -0.37774286 1.13 166 86 40 255
0.36782667 -0.37640572 1.126 166 86 40 255
0.36898571 -0.37540287 1.123 166 86 40 255
0.36748958 -0.37172574 1.1120001 166 86 40 255
0.36728096 -0.36938572 1.105 166 86 40 255
0.36804858 -0.36804858 1.1010001 166 86 40 255
0.37014574 -0.36804858 1.1010001 166 86 40 255
0.37089047 -0.36671141 1.097 166 86 40 255
0.37196004 -0.36570862 1.0940001 166 86 40 255
0.37165049 -0.36336857 1.087 166 86 40 255
0.37268955 -0.36236575 1.0840001 166 86 40 255
0.37475431 -0.36236575 1.0840001 166 86 40 255
0.37681907 -0.36236575 1.0840001 166 86 40 255
0.37748572 -0.36102858 1.08 166 86 40 255
0.37954286 -0.36102858 1.08 166 86 40 255
0.38160002 -0.36102858 1.08 166 86 40 255
0.38365716 -0.36102858 1.08 166 86 40 255
0.38571432 -0.36102858 1.08 166 86 40 255
0.38777143 -0.36102858 1.08 166 86 40 255
0.38982856 -0.36102858 1.08 166 86 40 255
0.39188573 -0.36102858 1.08 166 86 40 255
0.39394286 -0.36102858 1.08 166 86 40 255
0.39600003 -0.36102858 1.08 166 86 40 255
0.39805716 -0.36102858 1.08 166 86 40 255
0.4001143 -0.36102858 1.08 166 86 40 255
0.40105426 -0.3600257 1.077 166 86 40 255
0.40310574 -0.3600257 1.077 166 86 40 255
0.4062857 -0.36102858 1.08 166 86 40 255
0.40834287 -0.36102858 1.08 166 86 40 255
0.4104 -0.36102858 1.08 166 86 40 255
0.41245717 -0.36102858 1.08 166 86 40 255
0.4145143 -0.36102858 1.08 166 86 40 255
0.35004291 -0.38057622 1.1450001 166 86 40 255
0.35222381 -0.38057622 1.1450001 166 86 40 255
0.35316667 -0.37924668 1.141 166 86 40 255
0.35440573 -0.37824953 1.138 166 86 40 255
0.35657334 -0.37824953 1.138 166 86 40 255
0.35748002 -0.37692001 1.1340001 166 86 40 255
0.35964 -0.37692001 1.1340001 166 86 40 255
0.36180001 -0.37692001 1.1340001 166 86 40 255
0.36396003 -0.37692001 1.1340001 166 86 40 255
0.36482859 -0.37559047 1.13 166 86 40 255
0.36698094 -0.37559047 1.13 166 86 40 255
0.36782667 -0.37426096 1.126 166 86 40 255
0.36898571 -0.37326381 1.123 166 86 40 255
0.36848095 -0.37060475 1.115 166 86 40 255
0.36728096 -0.36728096 1.105 166 86 40 255
0.36938572 -0.36728096 1.105 166 86 40 255
0.37014574 -0.36595145 1.1010001 166 86 40 255
0.37089047 -0.36462191 1.097 166 86 40 255
0.37196004 -0.36362478 1.0940001 166 86 40 255
0.37267619 -0.36229524 1.09 166 86 40 255
0.37372097 -0.36129808 1.087 166 86 40 255
0.37475431 -0.36030099 1.0840001 166 86 40 255
0.37681907 -0.36030099 1.0840001 166 86 40 255
0.37748572 -0.35897145 1.08 166 86 40 255
0.37954286 -0.35897145 1.08 166 86 40 255
0.38160002 -0.35897145 1.08 166 86 40 255
0.38365716 -0.35897145 1.08 166 86 40 255
0.38571432 -0.35897145 1.08 166 86 40 255
0.38777143 -0.35897145 1.08 166 86 40 255
0.38982856 -0.35897145 1.08 166 86 40 255
0.39188573 -0.35897145 1.08 166 86 40 255
0.39394286 -0.35897145 1.08 166 86 40 255
0.39600003 -0.35897145 1.08 166 86 40 255
0.39805716 -0.35897145 1.08 166 86 40 255
0.4001143 -0.35897145 1.08 166 86 40 255
0.40105426 -0.35797429 1.077 166 86 40 255
0.40310574 -0.35797429 1.077 166 86 40 255
0.40515715 -0.35797429 1.077 166 86 40 255
0.40720856 -0.35797429 1.077 166 86 40 255
0.40926 -0.35797429 1.077 166 86 40 255
0.35004291 -0.37839526 1.1450001 166 86 40 255
0.35222381 -0.37839526 1.1450001 166 86 40 255
0.35316667 -0.37707332 1.141 166 86 40 255
0.35440573 -0.37608191 1.138 166 86 40 255
0.35657334 -0.37608191 1.138 166 86 40 255
0.35748002 -0.37476 1.1340001 166 86 40 255
0.35964 -0.37476 1.1340001 166 86 40 255
0.36180001 -0.37476 1.1340001 166 86 40 255
0.36267617 -0.37343809 1.13 166 86 40 255
0.36482859 -0.37343809 1.13 166 86 40 255
0.36698094 -0.37343809 1.13 166 86 40 255
0.36684665 -0.37112474 1.123 166 86 40 255
0.36898571 -0.37112474 1.123 166 86 40 255
0.36980289 -0.36980289 1.1190001 166 86 40 255
0.36960766 -0.36748958 1.1120001 166 86 40 255
0.36938572 -0.36517617 1.105 166 86 40 255
0.37014574 -0.36385432 1.1010001 166 86 40 255
0.37224287 -0.36385432 1.1010001 166 86 40 255
0.37298 -0.36253238 1.097 166 86 40 255
0.37404382 -0.361541 1.0940001 166 86 40 255
0.3747524 -0.36021906 1.09 166 86 40 255
0.37682858 -0.36021906 1.09 166 86 40 255
0.37786192 -0.3592276 1.087 166 86 40 255
0.37888384 -0.35823622 1.0840001 166 86 40 255
0.3809486 -0.35823622 1.0840001 166 86 40 255
0.38301337 -0.35823622 1.0840001 166 86 40 255
0.38507813 -0.35823622 1.0840001 166 86 40 255
0.3871429 -0.35823622 1.0840001 166 86 40 255
0.38920763 -0.35823622 1.0840001 166 86 40 255
0.38982856 -0.35691428 1.08 166 86 40 255
0.39188573 -0.35691428 1.08 166 86 40 255
0.39394286 -0.35691428 1.08 166 86 40 255
0.39600003 -0.35691428 1.08 166 86 40 255
0.39695144 -0.35592285 1.077 166 86 40 255
0.39900285 -0.35592285 1.077 166 86 40 255
0.39844763 -0.35360953 1.0700001 166 86 40 255
0.40048572 -0.35360953 1.0700001 166 86 40 255
0.4036524 -0.35460097 1.0730001 166 86 40 255
0.40720856 -0.35592285 1.077 166 86 40 255
0.34809619 -0.37884286 1.153 166 86 40 255
0.35029238 -0.37884286 1.153 166 86 40 255
0.35126573 -0.37752861 1.149 166 86 40 255
0.35222381 -0.3762143 1.1450001 166 86 40 255
0.35316667 -0.37490001 1.141 166 86 40 255
0.35534003 -0.37490001 1.141 166 86 40 255
0.35657334 -0.3739143 1.138 166 86 40 255
0.35748002 -0.37260002 1.1340001 166 86 40 255
0.35964 -0.37260002 1.1340001 166 86 40 255
0.36180001 -0.37260002 1.1340001 166 86 40 255
0.36267617 -0.37128571 1.13 166 86 40 255
0.36482859 -0.37128571 1.13 166 86 40 255
0.36568192 -0.36997142 1.126 166 86 40 255
0.36684665 -0.36898571 1.123 166 86 40 255
0.36898571 -0.36898571 1.123 166 86 40 255
0.37112474 -0.36898571 1.123 166 86 40 255
0.36960766 -0.36537147 1.1120001 166 86 40 255
0.3703886 -0.36405715 1.108 166 86 40 255
0.37014574 -0.36175716 1.1010001 166 86 40 255
0.37224287 -0.36175716 1.1010001 166 86 40 255
0.37298 -0.36044285 1.097 166 86 40 255
0.37506953 -0.36044285 1.097 166 86 40 255
0.37612766 -0.35945717 1.0940001 166 86 40 255
0.37821147 -0.35945717 1.0940001 166 86 40 255
0.38029525 -0.35945717 1.0940001 166 86 40 255
0.38098094 -0.35814288 1.09 166 86 40 255
0.38200286 -0.35715714 1.087 166 86 40 255
0.38407335 -0.35715714 1.087 166 86 40 255
0.38614383 -0.35715714 1.087 166 86 40 255
0.38821429 -0.35715714 1.087 166 86 40 255
0.38920763 -0.35617146 1.0840001 166 86 40 255
0.3912724 -0.35617146 1.0840001 166 86 40 255
0.39188573 -0.35485715 1.08 166 86 40 255
0.39394286 -0.35485715 1.08 166 86 40 255
0.39600003 -0.35485715 1.08 166 86 40 255
0.39695144 -0.35387143 1.077 166 86 40 255
0.39900285 -0.35387143 1.077 166 86 40 255
0.39844763 -0.35157144 1.0700001 166 86 40 255
0.40048572 -0.35157144 1.0700001 166 86 40 255
0.4036524 -0.35255715 1.0730001 166 86 40 255
0.35051143 -0.37925997 1.161 166 86 40 255
0.35029238 -0.37664667 1.153 166 86 40 255
0.35126573 -0.37534001 1.149 166 86 40 255
0.35222381 -0.37403336 1.1450001 166 86 40 255
0.35316667 -0.37272668 1.141 166 86 40 255
0.35534003 -0.37272668 1.141 166 86 40 255
0.35657334 -0.37174669 1.138 166 86 40 255
0.35748002 -0.37044004 1.1340001 166 86 40 255
0.35964 -0.37044004 1.1340001 166 86 40 255
0.36180001 -0.37044004 1.1340001 166 86 40 255
0.36267617 -0.36913332 1.13 166 86 40 255
0.36482859 -0.36913332 1.13 166 86 40 255
0.36568192 -0.36782667 1.126 166 86 40 255
0.36684665 -0.36684665 1.123 166 86 40 255
0.36898571 -0.36684665 1.123 166 86 40 255
0.37112474 -0.36684665 1.123 166 86 40 255
0.37060475 -0.36423334 1.115 166 86 40 255
0.37172574 -0.36325338 1.1120001 166 86 40 255
0.37149048 -0.36096668 1.105 166 86 40 255
0.37359524 -0.36096668 1.105 166 86 40 255
0.37434003 -0.35966003 1.1010001 166 86 40 255
0.37643716 -0.35966003 1.1010001 166 86 40 255
0.37853432 -0.35966003 1.1010001 166 86 40 255
0.38063145 -0.35966003 1.1010001 166 86 40 255
0.38272858 -0.35966003 1.1010001 166 86 40 255
0.38237908 -0.35737336 1.0940001 166 86 40 255
0.38446289 -0.35737336 1.0940001 166 86 40 255
0.38654667 -0.35737336 1.0940001 166 86 40 255
0.38969618 -0.35835332 1.097 166 86 40 255
0.39071432 -0.35737336 1.0940001 166 86 40 255
0.39279813 -0.35737336 1.0940001 166 86 40 255
0.39488193 -0.35737336 1.0940001 166 86 40 255
0.39696574 -0.35737336 1.0940001 166 86 40 255
0.4030619 -0.36096668 1.105 166 86 40 255
0.40626669 -0.36194667 1.108 166 86 40 255
0.40837717 -0.36194667 1.108 166 86 40 255
0.41048765 -0.36194667 1.108 166 86 40 255
0.34829998 -0.37704858 1.161 166 86 40 255
0.35051143 -0.37704858 1.161 166 86 40 255
0.35029238 -0.37445047 1.153 166 86 40 255
0.35126573 -0.37315145 1.149 166 86 40 255
0.35345429 -0.37315145 1.149 166 86 40 255
0.35316667 -0.37055334 1.141 166 86 40 255
0.35534003 -0.37055334 1.141 166 86 40 255
0.35657334 -0.36957905 1.138 166 86 40 255
0.35748002 -0.36828002 1.1340001 166 86 40 255
0.35964 -0.36828002 1.1340001 166 86 40 255
0.36180001 -0.36828002 1.1340001 166 86 40 255
0.36267617 -0.36698094 1.13 166 86 40 255
0.36482859 -0.36698094 1.13 166 86 40 255
0.36698094 -0.36698094 1.13 166 86 40 255
0.36684665 -0.36470765 1.123 166 86 40 255
0.36898571 -0.36470765 1.123 166 86 40 255
0.37112474 -0.36470765 1.123 166 86 40 255
0.37193432 -0.3634086 1.1190001 166 86 40 255
0.37272856 -0.36210951 1.115 166 86 40 255
0.37384385 -0.36113527 1.1120001 166 86 40 255
0.37460956 -0.35983619 1.108 166 86 40 255
0.37671998 -0.35983619 1.108 166 86 40 255
0.37780476 -0.35886189 1.105 166 86 40 255
0.37990952 -0.35886189 1.105 166 86 40 255
0.3820143 -0.35886189 1.105 166 86 40 255
0.38411906 -0.35886189 1.105 166 86 40 255
0.38482574 -0.35756287 1.1010001 166 86 40 255
0.38692287 -0.35756287 1.1010001 166 86 40 255
0.38902003 -0.35756287 1.1010001 166 86 40 255
0.39111719 -0.35756287 1.1010001 166 86 40 255
0.39321432 -0.35756287 1.1010001 166 86 40 255
0.39531144 -0.35756287 1.1010001 166 86 40 255
0.39740857 -0.35756287 1.1010001 166 86 40 255
0.39950573 -0.35756287 1.1010001 166 86 40 255
0.4030619 -0.35886189 1.105 166 86 40 255
0.40626669 -0.35983619 1.108 166 86 40 255
0.40837717 -0.35983619 1.108 166 86 40 255
0.41048765 -0.35983619 1.108 166 86 40 255
0.34829998 -0.37483716 1.161 166 86 40 255
0.35051143 -0.37483716 1.161 166 86 40 255
0.35029238 -0.37225428 1.153 166 86 40 255
0.35248858 -0.37225428 1.153 166 86 40 255
0.35345429 -0.37096286 1.149 166 86 40 255
0.35316667 -0.36838001 1.141 166 86 40 255
0.35534003 -0.36838001 1.141 166 86 40 255
0.35657334 -0.36741143 1.138 166 86 40 255
0.35748002 -0.36612001 1.1340001 166 86 40 255
0.35964 -0.36612001 1.1340001 166 86 40 255
0.36180001 -0.36612001 1.1340001 166 86 40 255
0.36396003 -0.36612001 1.1340001 166 86 40 255
0.36482859 -0.36482859 1.13 166 86 40 255
0.36698094 -0.36482859 1.13 166 86 40 255
0.36782667 -0.36353716 1.126 166 86 40 255
0.36898571 -0.36256859 1.123 166 86 40 255
0.37112474 -0.36256859 1.123 166 86 40 255
0.37193432 -0.36127716 1.1190001 166 86 40 255
0.37406573 -0.36127716 1.1190001 166 86 40 255
0.37485239 -0.35998574 1.115 166 86 40 255
0.37697619 -0.35998574 1.115 166 86 40 255
0.37808004 -0.35901719 1.1120001 166 86 40 255
0.38019812 -0.35901719 1.1120001 166 86 40 255
0.38094094 -0.35772571 1.108 166 86 40 255
0.38305143 -0.35772571 1.108 166 86 40 255
0.38411906 -0.35675713 1.105 166 86 40 255
0.38482574 -0.35546571 1.1010001 166 86 40 255
0.38692287 -0.35546571 1.1010001 166 86 40 255
0.38902003 -0.35546571 1.1010001 166 86 40 255
0.39111719 -0.35546571 1.1010001 166 86 40 255
0.39321432 -0.35546571 1.1010001 166 86 40 255
0.39531144 -0.35546571 1.1010001 166 86 40 255
0.39885238 -0.35675713 1.105 166 86 40 255
0.40204573 -0.35772571 1.108 166 86 40 255
0.40415621 -0.35772571 1.108 166 86 40 255
0.40626669 -0.35772571 1.108 166 86 40 255
0.40985149 -0.35901719 1.1120001 166 86 40 255
0.41863811 -0.36482859 1.13 166 86 40 255
0.35070002 -0.37519333 1.169 166 86 40 255
0.35051143 -0.37262574 1.161 166 86 40 255
0.35150763 -0.37134191 1.1570001 166 86 40 255
0.35248858 -0.37005809 1.153 166 86 40 255
0.35468477 -0.37005809 1.153 166 86 40 255
0.35440478 -0.3674905 1.1450001 166 86 40 255
0.35534003 -0.36620668 1.141 166 86 40 255
0.35657334 -0.36524382 1.138 166 86 40 255
0.35874096 -0.36524382 1.138 166 86 40 255
0.36090857 -0.36524382 1.138 166 86 40 255
0.36180001 -0.36396003 1.1340001 166 86 40 255
0.36396003 -0.36396003 1.1340001 166 86 40 255
0.36482859 -0.36267617 1.13 166 86 40 255
0.36698094 -0.36267617 1.13 166 86 40 255
0.36782667 -0.36139238 1.126 166 86 40 255
0.36997142 -0.36139238 1.126 166 86 40 255
0.37211621 -0.36139238 1.126 166 86 40 255
0.37326381 -0.36042953 1.123 166 86 40 255
0.37406573 -0.35914573 1.1190001 166 86 40 255
0.37485239 -0.35786191 1.115 166 86 40 255
0.37697619 -0.35786191 1.115 166 86 40 255
0.37909999 -0.35786191 1.115 166 86 40 255
0.38019812 -0.35689908 1.1120001 166 86 40 255
0.38094094 -0.35561526 1.108 166 86 40 255
0.38305143 -0.35561526 1.108 166 86 40 255
0.38516191 -0.35561526 1.108 166 86 40 255
0.38622382 -0.35465237 1.105 166 86 40 255
0.38832855 -0.35465237 1.105 166 86 40 255
0.39043334 -0.35465237 1.105 166 86 40 255
0.3925381 -0.35465237 1.105 166 86 40 255
0.39464286 -0.35465237 1.105 166 86 40 255
0.39674765 -0.35465237 1.105 166 86 40 255
0.39993525 -0.35561526 1.108 166 86 40 255
0.40204573 -0.35561526 1.108 166 86 40 255
0.40561527 -0.35689908 1.1120001 166 86 40 255
0.40883332 -0.35786191 1.115 166 86 40 255
0.41501144 -0.36139238 1.126 166 86 40 255
0.41863811 -0.36267617 1.13 166 86 40 255
0.42228001 -0.36396003 1.1340001 166 86 40 255
0.35070002 -0.37296668 1.169 166 86 40 255
0.35171905 -0.37169048 1.1650001 166 86 40 255
0.35272285 -0.37041429 1.161 166 86 40 255
0.35371146 -0.36913812 1.1570001 166 86 40 255
0.35468477 -0.3678619 1.153 166 86 40 255
0.35440478 -0.36530957 1.1450001 166 86 40 255
0.35534003 -0.36403334 1.141 166 86 40 255
0.35657334 -0.36307621 1.138 166 86 40 255
0.35874096 -0.36307621 1.138 166 86 40 255
0.36090857 -0.36307621 1.138 166 86 40 255
0.36180001 -0.36180001 1.1340001 166 86 40 255
0.36396003 -0.36180001 1.1340001 166 86 40 255
0.36612001 -0.36180001 1.1340001 166 86 40 255
0.36828002 -0.36180001 1.1340001 166 86 40 255
0.36913332 -0.36052379 1.13 166 86 40 255
0.37128571 -0.36052379 1.13 166 86 40 255
0.37211621 -0.35924762 1.126 166 86 40 255
0.37326381 -0.35829049 1.123 166 86 40 255
0.37406573 -0.3570143 1.1190001 166 86 40 255
0.37619716 -0.3570143 1.1190001 166 86 40 255
0.37832859 -0.3570143 1.1190001 166 86 40 255
0.37909999 -0.35573807 1.115 166 86 40 255
0.3812238 -0.35573807 1.115 166 86 40 255
0.38231623 -0.354781 1.1120001 166 86 40 255
0.38443431 -0.354781 1.1120001 166 86 40 255
0.38516191 -0.35350478 1.108 166 86 40 255
0.38727239 -0.35350478 1.108 166 86 40 255
0.38938287 -0.35350478 1.108 166 86 40 255
0.39149335 -0.35350478 1.108 166 86 40 255
0.39360383 -0.35350478 1.108 166 86 40 255
0.39571428 -0.35350478 1.108 166 86 40 255
0.39782476 -0.35350478 1.108 166 86 40 255
0.39993525 -0.35350478 1.108 166 86 40 255
0.40349716 -0.354781 1.1120001 166 86 40 255
0.40670952 -0.35573807 1.115 166 86 40 255
0.41176668 -0.35829049 1.123 166 86 40 255
0.4164857 -0.36052379 1.13 166 86 40 255
0.42012003 -0.36180001 1.1340001 166 86 40 255
0.42228001 -0.36180001 1.1340001 166 86 40 255
0.35070002 -0.37074 1.169 166 86 40 255
0.35171905 -0.36947146 1.1650001 166 86 40 255
0.35272285 -0.36820287 1.161 166 86 40 255
0.35371146 -0.36693433 1.1570001 166 86 40 255
0.35468477 -0.3656657 1.153 166 86 40 255
0.35440478 -0.3631286 1.1450001 166 86 40 255
0.35658574 -0.3631286 1.1450001 166 86 40 255
0.35657334 -0.36090857 1.138 166 86 40 255
0.35874096 -0.36090857 1.138 166 86 40 255
0.36090857 -0.36090857 1.138 166 86 40 255
0.36307621 -0.36090857 1.138 166 86 40 255
0.36396003 -0.35964 1.1340001 166 86 40 255
0.36612001 -0.35964 1.1340001 166 86 40 255
0.36828002 -0.35964 1.1340001 166 86 40 255
0.36913332 -0.35837144 1.13 166 86 40 255
0.37128571 -0.35837144 1.13 166 86 40 255
0.37211621 -0.35710287 1.126 166 86 40 255
0.37326381 -0.35615143 1.123 166 86 40 255
0.37540287 -0.35615143 1.123 166 86 40 255
0.37619716 -0.35488287 1.1190001 166 86 40 255
0.37832859 -0.35488287 1.1190001 166 86 40 255
0.38046002 -0.35488287 1.1190001 166 86 40 255
0.3812238 -0.3536143 1.115 166 86 40 255
0.38334763 -0.3536143 1.115 166 86 40 255
0.38547143 -0.3536143 1.115 166 86 40 255
0.38655242 -0.35266289 1.1120001 166 86 40 255
0.3886705 -0.35266289 1.1120001 166 86 40 255
0.39078858 -0.35266289 1.1120001 166 86 40 255
0.39149335 -0.3513943 1.108 166 86 40 255
0.39360383 -0.3513943 1.108 166 86 40 255
0.39714289 -0.35266289 1.1120001 166 86 40 255
0.39926097 -0.35266289 1.1120001 166 86 40 255
0.40246189 -0.3536143 1.115 166 86 40 255
0.40458572 -0.3536143 1.115 166 86 40 255
0.40816858 -0.35488287 1.1190001 166 86 40 255
0.41176668 -0.35615143 1.123 166 86 40 255
0.41501144 -0.35710287 1.126 166 86 40 255
0.41863811 -0.35837144 1.13 166 86 40 255
0.42228001 -0.35964 1.1340001 166 86 40 255
0.35085809 -0.37103525 1.177 166 86 40 255
0.35190001 -0.36977431 1.1730001 166 86 40 255
0.35292667 -0.36851332 1.169 166 86 40 255
0.35393813 -0.36725241 1.1650001 166 86 40 255
0.35493428 -0.36599144 1.161 166 86 40 255
0.35468477 -0.36346951 1.153 166 86 40 255
0.35440478 -0.36094764 1.1450001 166 86 40 255
0.35658574 -0.36094764 1.1450001 166 86 40 255
0.35751334 -0.35968667 1.141 166 86 40 255
0.35874096 -0.35874096 1.138 166 86 40 255
0.36090857 -0.35874096 1.138 166 86 40 255
0.36307621 -0.35874096 1.138 166 86 40 255
0.36396003 -0.35748002 1.1340001 166 86 40 255
0.36612001 -0.35748002 1.1340001 166 86 40 255
0.36828002 -0.35748002 1.1340001 166 86 40 255
0.37044004 -0.35748002 1.1340001 166 86 40 255
0.37128571 -0.35621905 1.13 166 86 40 255
0.37343809 -0.35621905 1.13 166 86 40 255
0.37426096 -0.35495812 1.126 166 86 40 255
0.37540287 -0.3540124 1.123 166 86 40 255
0.3775419 -0.3540124 1.123 166 86 40 255
0.37968096 -0.3540124 1.123 166 86 40 255
0.38046002 -0.35275146 1.1190001 166 86 40 255
0.38259146 -0.35275146 1.1190001 166 86 40 255
0.38472286 -0.35275146 1.1190001 166 86 40 255
0.38547143 -0.35149047 1.115 166 86 40 255
0.38759524 -0.35149047 1.115 166 86 40 255
0.38971907 -0.35149047 1.115 166 86 40 255
0.39184284 -0.35149047 1.115 166 86 40 255
0.3929067 -0.35054478 1.1120001 166 86 40 255
0.39502478 -0.35054478 1.1120001 166 86 40 255
0.39821428 -0.35149047 1.115 166 86 40 255
0.40033811 -0.35149047 1.115 166 86 40 255
0.40390575 -0.35275146 1.1190001 166 86 40 255
0.40603715 -0.35275146 1.1190001 166 86 40 255
0.40816858 -0.35275146 1.1190001 166 86 40 255
0.41176668 -0.3540124 1.123 166 86 40 255
0.41501144 -0.35495812 1.126 166 86 40 255
0.41863811 -0.35621905 1.13 166 86 40 255
0.42228001 -0.35748002 1.1340001 166 86 40 255
0.35217047 -0.37255332 1.189 166 86 40 255
0.35085809 -0.36879334 1.177 166 86 40 255
0.35190001 -0.36754003 1.1730001 166 86 40 255
0.35292667 -0.36628667 1.169 166 86 40 255
0.35393813 -0.36503336 1.1650001 166 86 40 255
0.35493428 -0.36377999 1.161 166 86 40 255
0.35591525 -0.36252668 1.1570001 166 86 40 255
0.35688096 -0.36127335 1.153 166 86 40 255
0.35658574 -0.3587667 1.1450001 166 86 40 255
0.35751334 -0.35751334 1.141 166 86 40 255
0.35874096 -0.35657334 1.138 166 86 40 255
0.36090857 -0.35657334 1.138 166 86 40 255
0.36307621 -0.35657334 1.138 166 86 40 255
0.36396003 -0.35532004 1.1340001 166 86 40 255
0.36612001 -0.35532004 1.1340001 166 86 40 255
0.36828002 -0.35532004 1.1340001 166 86 40 255
0.37044004 -0.35532004 1.1340001 166 86 40 255
0.37128571 -0.35406664 1.13 166 86 40 255
0.37343809 -0.35406664 1.13 166 86 40 255
0.37426096 -0.35281333 1.126 166 86 40 255
0.37640572 -0.35281333 1.126 166 86 40 255
0.3775419 -0.35187334 1.123 166 86 40 255
0.37968096 -0.35187334 1.123 166 86 40 255
0.38046002 -0.35062003 1.1190001 166 86 40 255
0.38259146 -0.35062003 1.1190001 166 86 40 255
0.38472286 -0.35062003 1.1190001 166 86 40 255
0.38685429 -0.35062003 1.1190001 166 86 40 255
0.38759524 -0.34936666 1.115 166 86 40 255
0.38971907 -0.34936666 1.115 166 86 40 255
0.39184284 -0.34936666 1.115 166 86 40 255
0.39396667 -0.34936666 1.115 166 86 40 255
0.39609045 -0.34936666 1.115 166 86 40 255
0.39821428 -0.34936666 1.115 166 86 40 255
0.40177432 -0.35062003 1.1190001 166 86 40 255
0.40390575 -0.35062003 1.1190001 166 86 40 255
0.40603715 -0.35062003 1.1190001 166 86 40 255
0.40816858 -0.35062003 1.1190001 166 86 40 255
0.41176668 -0.35187334 1.123 166 86 40 255
0.41501144 -0.35281333 1.126 166 86 40 255
0.41863811 -0.35406664 1.13 166 86 40 255
0.42376953 -0.35657334 1.138 166 86 40 255
0.3499057 -0.37028858 1.189 166 86 40 255
0.35217047 -0.37028858 1.189 166 86 40 255
0.35205051 -0.36779717 1.1810001 166 86 40 255
0.3531 -0.36655146 1.177 166 86 40 255
0.35413432 -0.36530575 1.1730001 166 86 40 255
0.35515335 -0.36405998 1.169 166 86 40 255
0.35615715 -0.36281431 1.1650001 166 86 40 255
0.35591525 -0.36032286 1.1570001 166 86 40 255
0.35688096 -0.35907716 1.153 166 86 40 255
0.35658574 -0.35658574 1.1450001 166 86 40 255
0.35751334 -0.35534003 1.141 166 86 40 255
0.35874096 -0.35440573 1.138 166 86 40 255
0.36090857 -0.35440573 1.138 166 86 40 255
0.36307621 -0.35440573 1.138 166 86 40 255
0.36524382 -0.35440573 1.138 166 86 40 255
0.36612001 -0.35316002 1.1340001 166 86 40 255
0.36828002 -0.35316002 1.1340001 166 86 40 255
0.37044004 -0.35316002 1.1340001 166 86 40 255
0.37128571 -0.35191429 1.13 166 86 40 255
0.37343809 -0.35191429 1.13 166 86 40 255
0.37559047 -0.35191429 1.13 166 86 40 255
0.37774286 -0.35191429 1.13 166 86 40 255
0.3785505 -0.35066858 1.126 166 86 40 255
0.38069525 -0.35066858 1.126 166 86 40 255
0.38181999 -0.34973428 1.123 166 86 40 255
0.38395905 -0.34973428 1.123 166 86 40 255
0.38609812 -0.34973428 1.123 166 86 40 255
0.38685429 -0.3484886 1.1190001 166 86 40 255
0.38898572 -0.3484886 1.1190001 166 86 40 255
0.38971907 -0.34724286 1.115 166 86 40 255
0.39184284 -0.34724286 1.115 166 86 40 255
0.39538002 -0.3484886 1.1190001 166 86 40 255
0.39751145 -0.3484886 1.1190001 166 86 40 255
0.39964288 -0.3484886 1.1190001 166 86 40 255
0.40177432 -0.3484886 1.1190001 166 86 40 255
0.40390575 -0.3484886 1.1190001 166 86 40 255
0.40748858 -0.34973428 1.123 166 86 40 255
0.40962762 -0.34973428 1.123 166 86 40 255
0.41176668 -0.34973428 1.123 166 86 40 255
0.41501144 -0.35066858 1.126 166 86 40 255
0.41863811 -0.35191429 1.13 166 86 40 255
0.35217047 -0.36802381 1.189 166 86 40 255
0.35324287 -0.36678573 1.1850001 166 86 40 255
0.35430005 -0.36554766 1.1810001 166 86 40 255
0.35534191 -0.36430955 1.177 166 86 40 255
0.35515335 -0.36183333 1.169 166 86 40 255
0.35615715 -0.36059526 1.1650001 166 86 40 255
0.3571457 -0.35935715 1.161 166 86 40 255
0.35811907 -0.35811907 1.1570001 166 86 40 255
0.35783145 -0.35564288 1.149 166 86 40 255
0.35751334 -0.35316667 1.141 166 86 40 255
0.35874096 -0.35223809 1.138 166 86 40 255
0.36090857 -0.35223809 1.138 166 86 40 255
0.36307621 -0.35223809 1.138 166 86 40 255
0.36524382 -0.35223809 1.138 166 86 40 255
0.36612001 -0.35100001 1.1340001 166 86 40 255
0.36828002 -0.35100001 1.1340001 166 86 40 255
0.37044004 -0.35100001 1.1340001 166 86 40 255
