ply
format ascii 1.0
comment PCL generated
element vertex 987
property float x
property float y
property float z
property uchar red
property uchar green
property uchar blue
property uchar alpha
element camera 0
property float view_px
property float view_py
property float view_pz
property float x_axisx
property float x_axisy
property float x_axisz
property float y_axisx
property float y_axisy
property float y_axisz
property float z_axisx
property float z_axisy
property float z_axisz
property float focal
property float scalex
property float scaley
property float centerx
property float centery
property int viewportx
property int viewporty
property float k1
property float k2
end_header
-0.5243333 -0.51511425 1.21 247 129 191 255
-0.52030289 -0.51341146 1.2060001 247 129 191 255
-0.51628762 -0.51170856 1.202 247 129 191 255
-0.51399809 -0.51170856 1.202 247 129 191 255
-0.50958002 -0.50958002 1.197 247 129 191 255
-0.50730002 -0.50958002 1.197 247 129 191 255
-0.50501996 -0.50958002 1.197 247 129 191 255
-0.55199051 -0.51280951 1.21 247 129 191 255
-0.54968578 -0.51280951 1.21 247 129 191 255
-0.54738092 -0.51280951 1.21 247 129 191 255
-0.54327434 -0.5111143 1.2060001 247 129 191 255
-0.53693998 -0.50730002 1.197 247 129 191 255
-0.53465998 -0.50730002 1.197 247 129 191 255
-0.53460377 -0.50941908 1.202 247 129 191 255
-0.53408575 -0.5111143 1.2060001 247 129 191 255
-0.53178859 -0.5111143 1.2060001 247 129 191 255
-0.52949148 -0.5111143 1.2060001 247 129 191 255
-0.52719432 -0.5111143 1.2060001 247 129 191 255
-0.52663809 -0.51280951 1.21 247 129 191 255
-0.5243333 -0.51280951 1.21 247 129 191 255
-0.52202857 -0.51280951 1.21 247 129 191 255
-0.51800579 -0.5111143 1.2060001 247 129 191 255
-0.51399809 -0.50941908 1.202 247 129 191 255
-0.51170856 -0.50941908 1.202 247 129 191 255
-0.50941908 -0.50941908 1.202 247 129 191 255
-0.55246294 -0.5088172 1.2060001 247 129 191 255
-0.55016577 -0.5088172 1.2060001 247 129 191 255
-0.54968578 -0.51050478 1.21 247 129 191 255
-0.54738092 -0.51050478 1.21 247 129 191 255
-0.54327434 -0.5088172 1.2060001 247 129 191 255
-0.5391829 -0.50712955 1.202 247 129 191 255
-0.53689337 -0.50712955 1.202 247 129 191 255
-0.53460377 -0.50712955 1.202 247 129 191 255
-0.53585714 -0.51050478 1.21 247 129 191 255
-0.53355241 -0.51050478 1.21 247 129 191 255
-0.53124762 -0.51050478 1.21 247 129 191 255
-0.52894288 -0.51050478 1.21 247 129 191 255
-0.52837908 -0.51219243 1.2140001 247 129 191 255
-0.52606672 -0.51219243 1.2140001 247 129 191 255
-0.52202857 -0.51050478 1.21 247 129 191 255
-0.51972383 -0.51050478 1.21 247 129 191 255
-0.5174191 -0.51050478 1.21 247 129 191 255
-0.51170856 -0.50712955 1.202 247 129 191 255
-0.50941908 -0.50712955 1.202 247 129 191 255
-0.50712955 -0.50712955 1.202 247 129 191 255
-0.50820005 -0.51050478 1.21 247 129 191 255
-0.50589526 -0.51050478 1.21 247 129 191 255
-0.50359046 -0.51050478 1.21 247 129 191 255
-0.50294286 -0.51219243 1.2140001 247 129 191 255
-0.49898094 -0.51050478 1.21 247 129 191 255
-0.49503428 -0.5088172 1.2060001 247 129 191 255
-0.49273717 -0.5088172 1.2060001 247 129 191 255
-0.55289996 -0.50274003 1.197 247 129 191 255
-0.55062002 -0.50274003 1.197 247 129 191 255
-0.55246294 -0.50652003 1.2060001 247 129 191 255
-0.55016577 -0.50652003 1.2060001 247 129 191 255
-0.54968578 -0.50820005 1.21 247 129 191 255
-0.54738092 -0.50820005 1.21 247 129 191 255
-0.54507619 -0.50820005 1.21 247 129 191 255
-0.54097718 -0.50652003 1.2060001 247 129 191 255
-0.53868002 -0.50652003 1.2060001 247 129 191 255
-0.53638285 -0.50652003 1.2060001 247 129 191 255
-0.53762865 -0.50988001 1.2140001 247 129 191 255
-0.53531623 -0.50988001 1.2140001 247 129 191 255
-0.53124762 -0.50820005 1.21 247 129 191 255
-0.52894288 -0.50820005 1.21 247 129 191 255
-0.52837908 -0.50988001 1.2140001 247 129 191 255
-0.52606672 -0.50988001 1.2140001 247 129 191 255
-0.52375436 -0.50988001 1.2140001 247 129 191 255
-0.52144194 -0.50988001 1.2140001 247 129 191 255
-0.51912957 -0.50988001 1.2140001 247 129 191 255
-0.51511425 -0.50820005 1.21 247 129 191 255
-0.50941908 -0.50484002 1.202 247 129 191 255
-0.50712955 -0.50484002 1.202 247 129 191 255
-0.50820005 -0.50820005 1.21 247 129 191 255
-0.50589526 -0.50820005 1.21 247 129 191 255
-0.50359046 -0.50820005 1.21 247 129 191 255
-0.50128573 -0.50820005 1.21 247 129 191 255
-0.49898094 -0.50820005 1.21 247 129 191 255
-0.49503428 -0.50652003 1.2060001 247 129 191 255
-0.49273717 -0.50652003 1.2060001 247 129 191 255
-0.49044004 -0.50652003 1.2060001 247 129 191 255
-0.55289996 -0.50046003 1.197 247 129 191 255
-0.55062002 -0.50046003 1.197 247 129 191 255
-0.55246294 -0.50422287 1.2060001 247 129 191 255
-0.55016577 -0.50422287 1.2060001 247 129 191 255
-0.54968578 -0.50589526 1.21 247 129 191 255
-0.54738092 -0.50589526 1.21 247 129 191 255
-0.54507619 -0.50589526 1.21 247 129 191 255
-0.54277146 -0.50589526 1.21 247 129 191 255
-0.54046667 -0.50589526 1.21 247 129 191 255
-0.53816193 -0.50589526 1.21 247 129 191 255
-0.53762865 -0.50756764 1.2140001 247 129 191 255
-0.53531623 -0.50756764 1.2140001 247 129 191 255
-0.53300387 -0.50756764 1.2140001 247 129 191 255
-0.5306915 -0.50756764 1.2140001 247 129 191 255
-0.53055531 -0.50965816 1.2190001 247 129 191 255
-0.52823335 -0.50965816 1.2190001 247 129 191 255
-0.52591145 -0.50965816 1.2190001 247 129 191 255
-0.52358955 -0.50965816 1.2190001 247 129 191 255
-0.52126765 -0.50965816 1.2190001 247 129 191 255
-0.51511425 -0.50589526 1.21 247 129 191 255
-0.5111143 -0.50422287 1.2060001 247 129 191 255
-0.5088172 -0.50422287 1.2060001 247 129 191 255
-0.50820005 -0.50589526 1.21 247 129 191 255
-0.50589526 -0.50589526 1.21 247 129 191 255
-0.50525528 -0.50756764 1.2140001 247 129 191 255
-0.50128573 -0.50589526 1.21 247 129 191 255
-0.49898094 -0.50589526 1.21 247 129 191 255
-0.49503428 -0.50422287 1.2060001 247 129 191 255
-0.49273717 -0.50422287 1.2060001 247 129 191 255
-0.49206671 -0.50589526 1.21 247 129 191 255
-0.48976189 -0.50589526 1.21 247 129 191 255
-0.55749905 -0.50026095 1.202 247 129 191 255
-0.55520958 -0.50026095 1.202 247 129 191 255
-0.55292004 -0.50026095 1.202 247 129 191 255
-0.55429524 -0.50359046 1.21 247 129 191 255
-0.55199051 -0.50359046 1.21 247 129 191 255
-0.54968578 -0.50359046 1.21 247 129 191 255
-0.54738092 -0.50359046 1.21 247 129 191 255
-0.54507619 -0.50359046 1.21 247 129 191 255
-0.54277146 -0.50359046 1.21 247 129 191 255
-0.54046667 -0.50359046 1.21 247 129 191 255
-0.53816193 -0.50359046 1.21 247 129 191 255
-0.53984284 -0.50733626 1.2190001 247 129 191 255
-0.537521 -0.50733626 1.2190001 247 129 191 255
-0.53519911 -0.50733626 1.2190001 247 129 191 255
-0.53287721 -0.50733626 1.2190001 247 129 191 255
-0.53229618 -0.50900102 1.223 247 129 191 255
-0.52996671 -0.50900102 1.223 247 129 191 255
-0.52763718 -0.50900102 1.223 247 129 191 255
-0.5253076 -0.50900102 1.223 247 129 191 255
-0.52297813 -0.50900102 1.223 247 129 191 255
-0.51894575 -0.50733626 1.2190001 247 129 191 255
-0.51280951 -0.50359046 1.21 247 129 191 255
-0.51050478 -0.50359046 1.21 247 129 191 255
-0.50988001 -0.50525528 1.2140001 247 129 191 255
-0.50756764 -0.50525528 1.2140001 247 129 191 255
-0.50525528 -0.50525528 1.2140001 247 129 191 255
-0.50128573 -0.50359046 1.21 247 129 191 255
-0.49898094 -0.50359046 1.21 247 129 191 255
-0.49667621 -0.50359046 1.21 247 129 191 255
-0.49437144 -0.50359046 1.21 247 129 191 255
-0.49206671 -0.50359046 1.21 247 129 191 255
-0.48976189 -0.50359046 1.21 247 129 191 255
-0.56120956 -0.50128573 1.21 247 129 191 255
-0.55890477 -0.50128573 1.21 247 129 191 255
-0.55659997 -0.50128573 1.21 247 129 191 255
-0.55612761 -0.50294286 1.2140001 247 129 191 255
-0.55381525 -0.50294286 1.2140001 247 129 191 255
-0.54968578 -0.50128573 1.21 247 129 191 255
-0.54738092 -0.50128573 1.21 247 129 191 255
-0.54507619 -0.50128573 1.21 247 129 191 255
-0.54277146 -0.50128573 1.21 247 129 191 255
-0.5444867 -0.5050143 1.2190001 247 129 191 255
-0.5421648 -0.5050143 1.2190001 247 129 191 255
-0.53984284 -0.5050143 1.2190001 247 129 191 255
-0.53928477 -0.50667143 1.223 247 129 191 255
-0.5369553 -0.50667143 1.223 247 129 191 255
-0.53637433 -0.50832862 1.2270001 247 129 191 255
-0.53403723 -0.50832862 1.2270001 247 129 191 255
-0.53170002 -0.50832862 1.2270001 247 129 191 255
-0.52936292 -0.50832862 1.2270001 247 129 191 255
-0.52917337 -0.51040006 1.2320001 247 129 191 255
-0.5246886 -0.50832862 1.2270001 247 129 191 255
-0.5223515 -0.50832862 1.2270001 247 129 191 255
-0.51831907 -0.50667143 1.223 247 129 191 255
-0.51430196 -0.5050143 1.2190001 247 129 191 255
-0.51198006 -0.5050143 1.2190001 247 129 191 255
-0.50965816 -0.5050143 1.2190001 247 129 191 255
-0.50733626 -0.5050143 1.2190001 247 129 191 255
-0.50294286 -0.50294286 1.2140001 247 129 191 255
-0.5006305 -0.50294286 1.2140001 247 129 191 255
-0.49831817 -0.50294286 1.2140001 247 129 191 255
-0.49600574 -0.50294286 1.2140001 247 129 191 255
-0.49369338 -0.50294286 1.2140001 247 129 191 255
-0.49138102 -0.50294286 1.2140001 247 129 191 255
-0.49108288 -0.5050143 1.2190001 247 129 191 255
-0.56120956 -0.49898094 1.21 247 129 191 255
-0.55890477 -0.49898094 1.21 247 129 191 255
-0.55659997 -0.49898094 1.21 247 129 191 255
-0.55612761 -0.5006305 1.2140001 247 129 191 255
-0.55381525 -0.5006305 1.2140001 247 129 191 255
-0.55150288 -0.5006305 1.2140001 247 129 191 255
-0.54919052 -0.5006305 1.2140001 247 129 191 255
-0.54687816 -0.5006305 1.2140001 247 129 191 255
-0.5468086 -0.5026924 1.2190001 247 129 191 255
-0.5444867 -0.5026924 1.2190001 247 129 191 255
-0.5421648 -0.5026924 1.2190001 247 129 191 255
-0.54161429 -0.5043419 1.223 247 129 191 255
-0.53928477 -0.5043419 1.223 247 129 191 255
-0.53871143 -0.50599152 1.2270001 247 129 191 255
-0.53637433 -0.50599152 1.2270001 247 129 191 255
-0.5362134 -0.50805336 1.2320001 247 129 191 255
-0.5338667 -0.50805336 1.2320001 247 129 191 255
-0.53152007 -0.50805336 1.2320001 247 129 191 255
-0.52917337 -0.50805336 1.2320001 247 129 191 255
-0.52682668 -0.50805336 1.2320001 247 129 191 255
-0.5223515 -0.50599152 1.2270001 247 129 191 255
-0.52001435 -0.50599152 1.2270001 247 129 191 255
-0.51598954 -0.5043419 1.223 247 129 191 255
-0.51366001 -0.5043419 1.223 247 129 191 255
-0.50965816 -0.5026924 1.2190001 247 129 191 255
-0.50733626 -0.5026924 1.2190001 247 129 191 255
-0.5050143 -0.5026924 1.2190001 247 129 191 255
-0.5026924 -0.5026924 1.2190001 247 129 191 255
-0.5003705 -0.5026924 1.2190001 247 129 191 255
-0.49600574 -0.5006305 1.2140001 247 129 191 255
-0.49369338 -0.5006305 1.2140001 247 129 191 255
-0.49340484 -0.5026924 1.2190001 247 129 191 255
-0.49108288 -0.5026924 1.2190001 247 129 191 255
-0.56120956 -0.49667621 1.21 247 129 191 255
-0.55890477 -0.49667621 1.21 247 129 191 255
-0.55844003 -0.49831817 1.2140001 247 129 191 255
-0.55612761 -0.49831817 1.2140001 247 129 191 255
-0.55381525 -0.49831817 1.2140001 247 129 191 255
-0.55150288 -0.49831817 1.2140001 247 129 191 255
-0.54919052 -0.49831817 1.2140001 247 129 191 255
-0.54687816 -0.49831817 1.2140001 247 129 191 255
-0.5468086 -0.5003705 1.2190001 247 129 191 255
-0.5444867 -0.5003705 1.2190001 247 129 191 255
-0.54394388 -0.50201243 1.223 247 129 191 255
-0.54338574 -0.5036543 1.2270001 247 129 191 255
-0.54325342 -0.50570673 1.2320001 247 129 191 255
-0.54090667 -0.50570673 1.2320001 247 129 191 255
-0.54030859 -0.5073486 1.2360001 247 129 191 255
-0.53795433 -0.5073486 1.2360001 247 129 191 255
-0.5338667 -0.50570673 1.2320001 247 129 191 255
-0.53152007 -0.50570673 1.2320001 247 129 191 255
-0.52917337 -0.50570673 1.2320001 247 129 191 255
-0.52682668 -0.50570673 1.2320001 247 129 191 255
-0.52448004 -0.50570673 1.2320001 247 129 191 255
-0.52213335 -0.50570673 1.2320001 247 129 191 255
-0.51767719 -0.5036543 1.2270001 247 129 191 255
-0.51534003 -0.5036543 1.2270001 247 129 191 255
-0.51300293 -0.5036543 1.2270001 247 129 191 255
-0.50900102 -0.50201243 1.223 247 129 191 255
-0.5050143 -0.5003705 1.2190001 247 129 191 255
-0.5026924 -0.5003705 1.2190001 247 129 191 255
-0.5003705 -0.5003705 1.2190001 247 129 191 255
-0.4980486 -0.5003705 1.2190001 247 129 191 255
-0.49572673 -0.5003705 1.2190001 247 129 191 255
-0.49340484 -0.5003705 1.2190001 247 129 191 255
-0.49108288 -0.5003705 1.2190001 247 129 191 255
-0.56537718 -0.49600574 1.2140001 247 129 191 255
-0.56120956 -0.49437144 1.21 247 129 191 255
-0.55890477 -0.49437144 1.21 247 129 191 255
-0.55844003 -0.49600574 1.2140001 247 129 191 255
-0.55612761 -0.49600574 1.2140001 247 129 191 255
-0.55609626 -0.4980486 1.2190001 247 129 191 255
-0.55150288 -0.49600574 1.2140001 247 129 191 255
-0.54919052 -0.49600574 1.2140001 247 129 191 255
-0.5491305 -0.4980486 1.2190001 247 129 191 255
-0.5468086 -0.4980486 1.2190001 247 129 191 255
-0.54627335 -0.49968284 1.223 247 129 191 255
-0.5457229 -0.5013172 1.2270001 247 129 191 255
-0.54560006 -0.50336009 1.2320001 247 129 191 255
-0.54501712 -0.50499427 1.2360001 247 129 191 255
-0.54266286 -0.50499427 1.2360001 247 129 191 255
-0.54030859 -0.50499427 1.2360001 247 129 191 255
-0.53795433 -0.50499427 1.2360001 247 129 191 255
-0.5377667 -0.50703716 1.2410001 247 129 191 255
-0.53324574 -0.50499427 1.2360001 247 129 191 255
-0.53089148 -0.50499427 1.2360001 247 129 191 255
-0.52853721 -0.50499427 1.2360001 247 129 191 255
-0.52618283 -0.50499427 1.2360001 247 129 191 255
-0.52382857 -0.50499427 1.2360001 247 129 191 255
-0.51978672 -0.50336009 1.2320001 247 129 191 255
-0.51744008 -0.50336009 1.2320001 247 129 191 255
-0.51509333 -0.50336009 1.2320001 247 129 191 255
-0.51066571 -0.5013172 1.2270001 247 129 191 255
-0.50667143 -0.49968284 1.223 247 129 191 255
-0.5043419 -0.49968284 1.223 247 129 191 255
-0.50201243 -0.49968284 1.223 247 129 191 255
-0.4980486 -0.4980486 1.2190001 247 129 191 255
-0.49572673 -0.4980486 1.2190001 247 129 191 255
-0.49340484 -0.4980486 1.2190001 247 129 191 255
-0.49269432 -0.49968284 1.223 247 129 191 255
-0.56394863 -0.49044004 1.2060001 247 129 191 255
-0.56165147 -0.49044004 1.2060001 247 129 191 255
-0.56306481 -0.49369338 1.2140001 247 129 191 255
-0.56075239 -0.49369338 1.2140001 247 129 191 255
-0.56074005 -0.49572673 1.2190001 247 129 191 255
-0.55841815 -0.49572673 1.2190001 247 129 191 255
-0.55609626 -0.49572673 1.2190001 247 129 191 255
-0.55377436 -0.49572673 1.2190001 247 129 191 255
-0.5514524 -0.49572673 1.2190001 247 129 191 255
-0.55093241 -0.49735335 1.223 247 129 191 255
-0.55039722 -0.49898008 1.2270001 247 129 191 255
-0.54806006 -0.49898008 1.2270001 247 129 191 255
-0.54794669 -0.50101334 1.2320001 247 129 191 255
-0.54737145 -0.50264001 1.2360001 247 129 191 255
-0.5472219 -0.50467336 1.2410001 247 129 191 255
-0.5448581 -0.50467336 1.2410001 247 129 191 255
-0.5424943 -0.50467336 1.2410001 247 129 191 255
-0.5401305 -0.50467336 1.2410001 247 129 191 255
-0.5377667 -0.50467336 1.2410001 247 129 191 255
-0.53540289 -0.50467336 1.2410001 247 129 191 255
-0.53089148 -0.50264001 1.2360001 247 129 191 255
-0.52853721 -0.50264001 1.2360001 247 129 191 255
-0.52618283 -0.50264001 1.2360001 247 129 191 255
-0.52382857 -0.50264001 1.2360001 247 129 191 255
-0.51978672 -0.50101334 1.2320001 247 129 191 255
-0.51744008 -0.50101334 1.2320001 247 129 191 255
-0.51509333 -0.50101334 1.2320001 247 129 191 255
-0.51066571 -0.49898008 1.2270001 247 129 191 255
-0.50832862 -0.49898008 1.2270001 247 129 191 255
-0.50599152 -0.49898008 1.2270001 247 129 191 255
-0.50201243 -0.49735335 1.223 247 129 191 255
-0.49968284 -0.49735335 1.223 247 129 191 255
-0.49735335 -0.49735335 1.223 247 129 191 255
-0.49502382 -0.49735335 1.223 247 129 191 255
-0.49269432 -0.49735335 1.223 247 129 191 255
-0.57000196 -0.49138102 1.2140001 247 129 191 255
-0.56394863 -0.48814291 1.2060001 247 129 191 255
-0.56165147 -0.48814291 1.2060001 247 129 191 255
-0.56306481 -0.49138102 1.2140001 247 129 191 255
-0.56075239 -0.49138102 1.2140001 247 129 191 255
-0.56074005 -0.49340484 1.2190001 247 129 191 255
-0.56025046 -0.49502382 1.223 247 129 191 255
-0.55792093 -0.49502382 1.223 247 129 191 255
-0.55559146 -0.49502382 1.223 247 129 191 255
-0.55326194 -0.49502382 1.223 247 129 191 255
-0.55093241 -0.49502382 1.223 247 129 191 255
-0.55039722 -0.49664289 1.2270001 247 129 191 255
-0.55029339 -0.4986667 1.2320001 247 129 191 255
-0.54972577 -0.50028574 1.2360001 247 129 191 255
-0.5495857 -0.50230956 1.2410001 247 129 191 255
-0.5472219 -0.50230956 1.2410001 247 129 191 255
-0.54661429 -0.50392854 1.245 247 129 191 255
-0.54424286 -0.50392854 1.245 247 129 191 255
-0.54187143 -0.50392854 1.245 247 129 191 255
-0.5377667 -0.50230956 1.2410001 247 129 191 255
-0.53540289 -0.50230956 1.2410001 247 129 191 255
-0.53303909 -0.50230956 1.2410001 247 129 191 255
-0.52853721 -0.50028574 1.2360001 247 129 191 255
-0.52618283 -0.50028574 1.2360001 247 129 191 255
-0.52382857 -0.50028574 1.2360001 247 129 191 255
-0.5214743 -0.50028574 1.2360001 247 129 191 255
-0.51912004 -0.50028574 1.2360001 247 129 191 255
-0.51676571 -0.50028574 1.2360001 247 129 191 255
-0.51274669 -0.4986667 1.2320001 247 129 191 255
-0.51040006 -0.4986667 1.2320001 247 129 191 255
-0.50805336 -0.4986667 1.2320001 247 129 191 255
-0.50570673 -0.4986667 1.2320001 247 129 191 255
-0.50336009 -0.4986667 1.2320001 247 129 191 255
-0.49898008 -0.49664289 1.2270001 247 129 191 255
-0.49664289 -0.49664289 1.2270001 247 129 191 255
-0.49430576 -0.49664289 1.2270001 247 129 191 255
-0.49196863 -0.49664289 1.2270001 247 129 191 255
-0.57655716 -0.49269432 1.223 247 129 191 255
-0.57000196 -0.4890686 1.2140001 247 129 191 255
-0.56768954 -0.4890686 1.2140001 247 129 191 255
-0.56537718 -0.4890686 1.2140001 247 129 191 255
-0.56306481 -0.4890686 1.2140001 247 129 191 255
-0.56306195 -0.49108288 1.2190001 247 129 191 255
-0.56074005 -0.49108288 1.2190001 247 129 191 255
-0.56025046 -0.49269432 1.223 247 129 191 255
-0.55792093 -0.49269432 1.223 247 129 191 255
-0.55559146 -0.49269432 1.223 247 129 191 255
-0.55326194 -0.49269432 1.223 247 129 191 255
-0.55273432 -0.49430576 1.2270001 247 129 191 255
-0.55264002 -0.49632004 1.2320001 247 129 191 255
-0.55208004 -0.49793142 1.2360001 247 129 191 255
-0.54972577 -0.49793142 1.2360001 247 129 191 255
-0.55135715 -0.50155717 1.245 247 129 191 255
-0.54898572 -0.50155717 1.245 247 129 191 255
-0.54661429 -0.50155717 1.245 247 129 191 255
-0.54424286 -0.50155717 1.245 247 129 191 255
-0.54187143 -0.50155717 1.245 247 129 191 255
-0.5395 -0.50155717 1.245 247 129 191 255
-0.53540289 -0.49994576 1.2410001 247 129 191 255
-0.53303909 -0.49994576 1.2410001 247 129 191 255
-0.53067529 -0.49994576 1.2410001 247 129 191 255
-0.52831149 -0.49994576 1.2410001 247 129 191 255
-0.52594763 -0.49994576 1.2410001 247 129 191 255
-0.5214743 -0.49793142 1.2360001 247 129 191 255
-0.51912004 -0.49793142 1.2360001 247 129 191 255
-0.51676571 -0.49793142 1.2360001 247 129 191 255
-0.51441145 -0.49793142 1.2360001 247 129 191 255
-0.51205719 -0.49793142 1.2360001 247 129 191 255
-0.50970292 -0.49793142 1.2360001 247 129 191 255
-0.5073486 -0.49793142 1.2360001 247 129 191 255
-0.50499427 -0.49793142 1.2360001 247 129 191 255
-0.50264001 -0.49793142 1.2360001 247 129 191 255
-0.4986667 -0.49632004 1.2320001 247 129 191 255
-0.49632004 -0.49632004 1.2320001 247 129 191 255
-0.49397337 -0.49632004 1.2320001 247 129 191 255
-0.57467145 -0.48876098 1.2190001 247 129 191 255
-0.57000196 -0.48675624 1.2140001 247 129 191 255
-0.56768954 -0.48675624 1.2140001 247 129 191 255
-0.56537718 -0.48675624 1.2140001 247 129 191 255
-0.56306481 -0.48675624 1.2140001 247 129 191 255
-0.56306195 -0.48876098 1.2190001 247 129 191 255
-0.56074005 -0.48876098 1.2190001 247 129 191 255
-0.56025046 -0.49036476 1.223 247 129 191 255
-0.55792093 -0.49036476 1.223 247 129 191 255
-0.55559146 -0.49036476 1.223 247 129 191 255
-0.55507147 -0.49196863 1.2270001 247 129 191 255
-0.55498666 -0.49397337 1.2320001 247 129 191 255
-0.55264002 -0.49397337 1.2320001 247 129 191 255
-0.55208004 -0.49557716 1.2360001 247 129 191 255
-0.5519495 -0.4975819 1.2410001 247 129 191 255
-0.55135715 -0.49918574 1.245 247 129 191 255
-0.54898572 -0.49918574 1.245 247 129 191 255
-0.54880953 -0.50119048 1.25 247 129 191 255
-0.54642856 -0.50119048 1.25 247 129 191 255
-0.54187143 -0.49918574 1.245 247 129 191 255
-0.5395 -0.49918574 1.245 247 129 191 255
-0.53928572 -0.50119048 1.25 247 129 191 255
-0.53475714 -0.49918574 1.245 247 129 191 255
-0.53238571 -0.49918574 1.245 247 129 191 255
-0.53001428 -0.49918574 1.245 247 129 191 255
-0.52764285 -0.49918574 1.245 247 129 191 255
-0.52358383 -0.4975819 1.2410001 247 129 191 255
-0.51912004 -0.49557716 1.2360001 247 129 191 255
-0.51676571 -0.49557716 1.2360001 247 129 191 255
-0.51649237 -0.4975819 1.2410001 247 129 191 255
-0.51412857 -0.4975819 1.2410001 247 129 191 255
-0.51176476 -0.4975819 1.2410001 247 129 191 255
-0.51309526 -0.50119048 1.25 247 129 191 255
-0.51071429 -0.50119048 1.25 247 129 191 255
-0.50629997 -0.49918574 1.245 247 129 191 255
-0.50230956 -0.4975819 1.2410001 247 129 191 255
-0.49632004 -0.49397337 1.2320001 247 129 191 255
-0.49397337 -0.49397337 1.2320001 247 129 191 255
-0.57084 -0.48125145 1.2060001 247 129 191 255
-0.5685429 -0.48125145 1.2060001 247 129 191 255
-0.56812382 -0.48284763 1.21 247 129 191 255
-0.56581908 -0.48284763 1.21 247 129 191 255
-0.56351429 -0.48284763 1.21 247 129 191 255
-0.56306481 -0.48444384 1.2140001 247 129 191 255
-0.56306195 -0.48643908 1.2190001 247 129 191 255
-0.56258005 -0.48803523 1.223 247 129 191 255
-0.56025046 -0.48803523 1.223 247 129 191 255
-0.55792093 -0.48803523 1.223 247 129 191 255
-0.55740863 -0.48963144 1.2270001 247 129 191 255
-0.55507147 -0.48963144 1.2270001 247 129 191 255
-0.55498666 -0.49162674 1.2320001 247 129 191 255
-0.5544343 -0.49322289 1.2360001 247 129 191 255
-0.55208004 -0.49322289 1.2360001 247 129 191 255
-0.55372852 -0.49681431 1.245 247 129 191 255
-0.55135715 -0.49681431 1.245 247 129 191 255
-0.5511905 -0.49880952 1.25 247 129 191 255
-0.54880953 -0.49880952 1.25 247 129 191 255
-0.54642856 -0.49880952 1.25 247 129 191 255
-0.54404759 -0.49880952 1.25 247 129 191 255
-0.54383337 -0.50080478 1.2550001 247 129 191 255
-0.54144293 -0.50080478 1.2550001 247 129 191 255
-0.53690475 -0.49880952 1.25 247 129 191 255
-0.53452379 -0.49880952 1.25 247 129 191 255
-0.53214288 -0.49880952 1.25 247 129 191 255
-0.52976191 -0.49880952 1.25 247 129 191 255
-0.52738094 -0.49880952 1.25 247 129 191 255
-0.52289999 -0.49681431 1.245 247 129 191 255
-0.52052855 -0.49681431 1.245 247 129 191 255
-0.5202381 -0.49880952 1.25 247 129 191 255
-0.51785713 -0.49880952 1.25 247 129 191 255
-0.51547617 -0.49880952 1.25 247 129 191 255
-0.51514763 -0.50080478 1.2550001 247 129 191 255
-0.51275718 -0.50080478 1.2550001 247 129 191 255
-0.50629997 -0.49681431 1.245 247 129 191 255
-0.50230956 -0.4952181 1.2410001 247 129 191 255
-0.49632004 -0.49162674 1.2320001 247 129 191 255
-0.49397337 -0.49162674 1.2320001 247 129 191 255
-0.49162674 -0.49162674 1.2320001 247 129 191 255
-0.57503814 -0.48054287 1.21 247 129 191 255
-0.57084 -0.47895432 1.2060001 247 129 191 255
-0.5685429 -0.47895432 1.2060001 247 129 191 255
-0.56812382 -0.48054287 1.21 247 129 191 255
-0.56581908 -0.48054287 1.21 247 129 191 255
-0.56351429 -0.48054287 1.21 247 129 191 255
-0.56306481 -0.48213145 1.2140001 247 129 191 255
-0.56306195 -0.48411715 1.2190001 247 129 191 255
-0.56258005 -0.48570573 1.223 247 129 191 255
-0.56208295 -0.48729435 1.2270001 247 129 191 255
-0.55974573 -0.48729435 1.2270001 247 129 191 255
-0.55740863 -0.48729435 1.2270001 247 129 191 255
-0.55733341 -0.48928002 1.2320001 247 129 191 255
-0.55678862 -0.4908686 1.2360001 247 129 191 255
-0.55667716 -0.4928543 1.2410001 247 129 191 255
-0.55431336 -0.4928543 1.2410001 247 129 191 255
-0.55372852 -0.49444282 1.245 247 129 191 255
-0.5535714 -0.49642858 1.25 247 129 191 255
-0.5511905 -0.49642858 1.25 247 129 191 255
-0.55100483 -0.49841431 1.2550001 247 129 191 255
-0.54861432 -0.49841431 1.2550001 247 129 191 255
-0.54622382 -0.49841431 1.2550001 247 129 191 255
-0.54383337 -0.49841431 1.2550001 247 129 191 255
-0.54144293 -0.49841431 1.2550001 247 129 191 255
-0.53905243 -0.49841431 1.2550001 247 129 191 255
-0.53666192 -0.49841431 1.2550001 247 129 191 255
-0.53427148 -0.49841431 1.2550001 247 129 191 255
-0.53188097 -0.49841431 1.2550001 247 129 191 255
-0.52949047 -0.49841431 1.2550001 247 129 191 255
-0.52878004 -0.50000292 1.2590001 247 129 191 255
-0.52470958 -0.49841431 1.2550001 247 129 191 255
-0.52231908 -0.49841431 1.2550001 247 129 191 255
-0.52158576 -0.50000292 1.2590001 247 129 191 255
-0.51918763 -0.50000292 1.2590001 247 129 191 255
-0.51884192 -0.50198859 1.2640001 247 129 191 255
-0.51643431 -0.50198859 1.2640001 247 129 191 255
-0.50833333 -0.49642858 1.25 247 129 191 255
-0.50230956 -0.4928543 1.2410001 247 129 191 255
-0.49632004 -0.48928002 1.2320001 247 129 191 255
-0.49397337 -0.48928002 1.2320001 247 129 191 255
-0.49162674 -0.48928002 1.2320001 247 129 191 255
-0.57503814 -0.47823811 1.21 247 129 191 255
-0.57273334 -0.47823811 1.21 247 129 191 255
-0.57231432 -0.47981909 1.2140001 247 129 191 255
-0.56812382 -0.47823811 1.21 247 129 191 255
-0.56581908 -0.47823811 1.21 247 129 191 255
-0.56351429 -0.47823811 1.21 247 129 191 255
-0.56306481 -0.47981909 1.2140001 247 129 191 255
-0.56306195 -0.48179528 1.2190001 247 129 191 255
-0.56258005 -0.4833762 1.223 247 129 191 255
-0.56208295 -0.48495719 1.2270001 247 129 191 255
-0.55974573 -0.48495719 1.2270001 247 129 191 255
-0.55968004 -0.48693338 1.2320001 247 129 191 255
-0.55733341 -0.48693338 1.2320001 247 129 191 255
-0.55904096 -0.4904905 1.2410001 247 129 191 255
-0.55667716 -0.4904905 1.2410001 247 129 191 255
-0.55610001 -0.49207142 1.245 247 129 191 255
-0.55372852 -0.49207142 1.245 247 129 191 255
-0.5535714 -0.49404761 1.25 247 129 191 255
-0.55339527 -0.49602386 1.2550001 247 129 191 255
-0.55100483 -0.49602386 1.2550001 247 129 191 255
-0.54861432 -0.49602386 1.2550001 247 129 191 255
-0.54622382 -0.49602386 1.2550001 247 129 191 255
-0.54556668 -0.49760479 1.2590001 247 129 191 255
-0.5431686 -0.49760479 1.2590001 247 129 191 255
-0.54077047 -0.49760479 1.2590001 247 129 191 255
-0.5383724 -0.49760479 1.2590001 247 129 191 255
-0.53597426 -0.49760479 1.2590001 247 129 191 255
-0.53357619 -0.49760479 1.2590001 247 129 191 255
-0.53117812 -0.49760479 1.2590001 247 129 191 255
-0.52878004 -0.49760479 1.2590001 247 129 191 255
-0.52638197 -0.49760479 1.2590001 247 129 191 255
-0.52398384 -0.49760479 1.2590001 247 129 191 255
-0.52365714 -0.49958095 1.2640001 247 129 191 255
-0.52124953 -0.49958095 1.2640001 247 129 191 255
-0.52048379 -0.50116193 1.268 247 129 191 255
-0.51806855 -0.50116193 1.268 247 129 191 255
-0.51036674 -0.49602386 1.2550001 247 129 191 255
-0.50392854 -0.49207142 1.245 247 129 191 255
-0.49632004 -0.48693338 1.2320001 247 129 191 255
-0.49397337 -0.48693338 1.2320001 247 129 191 255
-0.49162674 -0.48693338 1.2320001 247 129 191 255
-0.5793153 -0.47947338 1.2190001 247 129 191 255
-0.57462668 -0.4775067 1.2140001 247 129 191 255
-0.57231432 -0.4775067 1.2140001 247 129 191 255
-0.57000196 -0.4775067 1.2140001 247 129 191 255
-0.56768954 -0.4775067 1.2140001 247 129 191 255
-0.56537718 -0.4775067 1.2140001 247 129 191 255
-0.56538385 -0.47947338 1.2190001 247 129 191 255
-0.56306195 -0.47947338 1.2190001 247 129 191 255
-0.56258005 -0.48104668 1.223 247 129 191 255
-0.56208295 -0.48262003 1.2270001 247 129 191 255
-0.55974573 -0.48262003 1.2270001 247 129 191 255
-0.55968004 -0.48458669 1.2320001 247 129 191 255
-0.55733341 -0.48458669 1.2320001 247 129 191 255
-0.55904096 -0.4881267 1.2410001 247 129 191 255
-0.55667716 -0.4881267 1.2410001 247 129 191 255
-0.55610001 -0.48969999 1.245 247 129 191 255
-0.55372852 -0.48969999 1.245 247 129 191 255
-0.5535714 -0.49166667 1.25 247 129 191 255
-0.55339527 -0.49363339 1.2550001 247 129 191 255
-0.55100483 -0.49363339 1.2550001 247 129 191 255
-0.54861432 -0.49363339 1.2550001 247 129 191 255
-0.54796481 -0.49520671 1.2590001 247 129 191 255
-0.54773337 -0.49717337 1.2640001 247 129 191 255
-0.54705143 -0.49874669 1.268 247 129 191 255
-0.54291809 -0.49717337 1.2640001 247 129 191 255
-0.54051048 -0.49717337 1.2640001 247 129 191 255
-0.53810287 -0.49717337 1.2640001 247 129 191 255
-0.53569525 -0.49717337 1.2640001 247 129 191 255
-0.53328764 -0.49717337 1.2640001 247 129 191 255
-0.53088003 -0.49717337 1.2640001 247 129 191 255
-0.52847236 -0.49717337 1.2640001 247 129 191 255
-0.52606481 -0.49717337 1.2640001 247 129 191 255
-0.52531427 -0.49874669 1.268 247 129 191 255
-0.52289903 -0.49874669 1.268 247 129 191 255
-0.52048379 -0.49874669 1.268 247 129 191 255
-0.51806855 -0.49874669 1.268 247 129 191 255
-0.51199335 -0.49520671 1.2590001 247 129 191 255
-0.50595236 -0.49166667 1.25 247 129 191 255
-0.49269432 -0.48104668 1.223 247 129 191 255
-0.5793153 -0.47715145 1.2190001 247 129 191 255
-0.57699341 -0.47715145 1.2190001 247 129 191 255
-0.57231432 -0.47519431 1.2140001 247 129 191 255
-0.57000196 -0.47519431 1.2140001 247 129 191 255
-0.56768954 -0.47519431 1.2140001 247 129 191 255
-0.56537718 -0.47519431 1.2140001 247 129 191 255
-0.56538385 -0.47715145 1.2190001 247 129 191 255
-0.56306195 -0.47715145 1.2190001 247 129 191 255
-0.56258005 -0.47871715 1.223 247 129 191 255
-0.56208295 -0.4802829 1.2270001 247 129 191 255
-0.55974573 -0.4802829 1.2270001 247 129 191 255
-0.55968004 -0.48224005 1.2320001 247 129 191 255
-0.55914289 -0.48380575 1.2360001 247 129 191 255
-0.56084287 -0.48732856 1.245 247 129 191 255
-0.55847144 -0.48732856 1.245 247 129 191 255
-0.55610001 -0.48732856 1.245 247 129 191 255
-0.55595237 -0.48928571 1.25 247 129 191 255
-0.55578578 -0.49124292 1.2550001 247 129 191 255
-0.55339527 -0.49124292 1.2550001 247 129 191 255
-0.55276102 -0.49280861 1.2590001 247 129 191 255
-0.55036288 -0.49280861 1.2590001 247 129 191 255
-0.55014098 -0.49476573 1.2640001 247 129 191 255
-0.54946667 -0.49633142 1.268 247 129 191 255
-0.54920858 -0.49828857 1.273 247 129 191 255
-0.54463619 -0.49633142 1.268 247 129 191 255
-0.54222095 -0.49633142 1.268 247 129 191 255
-0.53980571 -0.49633142 1.268 247 129 191 255
-0.53739047 -0.49633142 1.268 247 129 191 255
-0.53708476 -0.49828857 1.273 247 129 191 255
-0.53465998 -0.49828857 1.273 247 129 191 255
-0.53014475 -0.49633142 1.268 247 129 191 255
-0.52772957 -0.49633142 1.268 247 129 191 255
-0.52531427 -0.49633142 1.268 247 129 191 255
-0.52496094 -0.49828857 1.273 247 129 191 255
-0.52253622 -0.49828857 1.273 247 129 191 255
-0.51806855 -0.49633142 1.268 247 129 191 255
-0.5140267 -0.49476573 1.2640001 247 129 191 255
-0.51161903 -0.49476573 1.2640001 247 129 191 255
-0.5793153 -0.47482955 1.2190001 247 129 191 255
-0.57462668 -0.47288194 1.2140001 247 129 191 255
-0.57231432 -0.47288194 1.2140001 247 129 191 255
-0.57000196 -0.47288194 1.2140001 247 129 191 255
-0.56768954 -0.47288194 1.2140001 247 129 191 255
-0.56537718 -0.47288194 1.2140001 247 129 191 255
-0.56538385 -0.47482955 1.2190001 247 129 191 255
-0.56306195 -0.47482955 1.2190001 247 129 191 255
-0.56442004 -0.47794574 1.2270001 247 129 191 255
-0.56208295 -0.47794574 1.2270001 247 129 191 255
-0.56202674 -0.47989336 1.2320001 247 129 191 255
-0.56149715 -0.48145145 1.2360001 247 129 191 255
-0.56140476 -0.48339906 1.2410001 247 129 191 255
-0.56309521 -0.48690477 1.25 247 129 191 255
-0.5607143 -0.48690477 1.25 247 129 191 255
-0.55833334 -0.48690477 1.25 247 129 191 255
-0.55817628 -0.48885241 1.2550001 247 129 191 255
-0.55578578 -0.48885241 1.2550001 247 129 191 255
-0.55515909 -0.49041051 1.2590001 247 129 191 255
-0.5549562 -0.49235809 1.2640001 247 129 191 255
-0.55254859 -0.49235809 1.2640001 247 129 191 255
-0.55188191 -0.49391618 1.268 247 129 191 255
-0.55163336 -0.4958638 1.273 247 129 191 255
-0.54920858 -0.4958638 1.273 247 129 191 255
-0.54463619 -0.49391618 1.268 247 129 191 255
-0.54222095 -0.49391618 1.268 247 129 191 255
-0.54193431 -0.4958638 1.273 247 129 191 255
-0.53950948 -0.4958638 1.273 247 129 191 255
-0.53708476 -0.4958638 1.273 247 129 191 255
-0.53465998 -0.4958638 1.273 247 129 191 255
-0.53223521 -0.4958638 1.273 247 129 191 255
-0.52981049 -0.4958638 1.273 247 129 191 255
-0.52738571 -0.4958638 1.273 247 129 191 255
-0.52496094 -0.4958638 1.273 247 129 191 255
-0.52253622 -0.4958638 1.273 247 129 191 255
-0.52011144 -0.4958638 1.273 247 129 191 255
-0.51565331 -0.49391618 1.268 247 129 191 255
-0.51323813 -0.49391618 1.268 247 129 191 255
-0.51082289 -0.49391618 1.268 247 129 191 255
-0.5793153 -0.47250763 1.2190001 247 129 191 255
-0.57462668 -0.47056958 1.2140001 247 129 191 255
-0.57231432 -0.47056958 1.2140001 247 129 191 255
-0.57000196 -0.47056958 1.2140001 247 129 191 255
-0.56768954 -0.47056958 1.2140001 247 129 191 255
-0.56537718 -0.47056958 1.2140001 247 129 191 255
-0.56723905 -0.47405809 1.223 247 129 191 255
-0.56490952 -0.47405809 1.223 247 129 191 255
-0.56442004 -0.47560862 1.2270001 247 129 191 255
-0.56437337 -0.47754669 1.2320001 247 129 191 255
-0.56385142 -0.47909716 1.2360001 247 129 191 255
-0.56149715 -0.47909716 1.2360001 247 129 191 255
-0.5632143 -0.4825857 1.245 247 129 191 255
-0.56309521 -0.4845238 1.25 247 129 191 255
-0.5607143 -0.4845238 1.25 247 129 191 255
-0.55833334 -0.4845238 1.25 247 129 191 255
-0.55817628 -0.48646194 1.2550001 247 129 191 255
-0.55755717 -0.4880124 1.2590001 247 129 191 255
-0.55515909 -0.4880124 1.2590001 247 129 191 255
-0.5549562 -0.48995048 1.2640001 247 129 191 255
-0.55254859 -0.48995048 1.2640001 247 129 191 255
-0.55405807 -0.49343908 1.273 247 129 191 255
-0.55163336 -0.49343908 1.273 247 129 191 255
-0.54920858 -0.49343908 1.273 247 129 191 255
-0.5467838 -0.49343908 1.273 247 129 191 255
-0.54435909 -0.49343908 1.273 247 129 191 255
-0.54193431 -0.49343908 1.273 247 129 191 255
-0.53950948 -0.49343908 1.273 247 129 191 255
-0.53708476 -0.49343908 1.273 247 129 191 255
-0.53465998 -0.49343908 1.273 247 129 191 255
-0.53223521 -0.49343908 1.273 247 129 191 255
-0.52981049 -0.49343908 1.273 247 129 191 255
-0.52738571 -0.49343908 1.273 247 129 191 255
-0.52496094 -0.49343908 1.273 247 129 191 255
-0.52253622 -0.49343908 1.273 247 129 191 255
-0.52011144 -0.49343908 1.273 247 129 191 255
-0.51565331 -0.49150094 1.268 247 129 191 255
-0.51323813 -0.49150094 1.268 247 129 191 255
-0.49108288 -0.47250763 1.2190001 247 129 191 255
-0.48675624 -0.47056958 1.2140001 247 129 191 255
-0.48444384 -0.47056958 1.2140001 247 129 191 255
-0.58121622 -0.47172859 1.223 247 129 191 255
-0.57699341 -0.47018576 1.2190001 247 129 191 255
-0.57467145 -0.47018576 1.2190001 247 129 191 255
-0.57234955 -0.47018576 1.2190001 247 129 191 255
-0.57002765 -0.47018576 1.2190001 247 129 191 255
-0.56770575 -0.47018576 1.2190001 247 129 191 255
-0.56723905 -0.47172859 1.223 247 129 191 255
-0.56675714 -0.47327149 1.2270001 247 129 191 255
-0.56442004 -0.47327149 1.2270001 247 129 191 255
-0.56437337 -0.47520006 1.2320001 247 129 191 255
-0.56385142 -0.47674286 1.2360001 247 129 191 255
-0.56149715 -0.47674286 1.2360001 247 129 191 255
-0.5632143 -0.4802143 1.245 247 129 191 255
-0.56309521 -0.48214287 1.25 247 129 191 255
-0.5607143 -0.48214287 1.25 247 129 191 255
-0.55833334 -0.48214287 1.25 247 129 191 255
-0.55817628 -0.48407146 1.2550001 247 129 191 255
-0.55755717 -0.4856143 1.2590001 247 129 191 255
-0.55515909 -0.4856143 1.2590001 247 129 191 255
-0.55671233 -0.48908567 1.268 247 129 191 255
-0.55429715 -0.48908567 1.268 247 129 191 255
-0.55405807 -0.49101427 1.273 247 129 191 255
-0.54946667 -0.48908567 1.268 247 129 191 255
-0.54705143 -0.48908567 1.268 247 129 191 255
-0.54463619 -0.48908567 1.268 247 129 191 255
-0.54435909 -0.49101427 1.273 247 129 191 255
-0.54193431 -0.49101427 1.273 247 129 191 255
-0.53950948 -0.49101427 1.273 247 129 191 255
-0.53708476 -0.49101427 1.273 247 129 191 255
-0.53465998 -0.49101427 1.273 247 129 191 255
-0.53432578 -0.49294287 1.2780001 247 129 191 255
-0.53189147 -0.49294287 1.2780001 247 129 191 255
-0.52945721 -0.49294287 1.2780001 247 129 191 255
-0.52496094 -0.49101427 1.273 247 129 191 255
-0.52253622 -0.49101427 1.273 247 129 191 255
-0.52011144 -0.49101427 1.273 247 129 191 255
-0.51768667 -0.49101427 1.273 247 129 191 255
-0.51526195 -0.49101427 1.273 247 129 191 255
-0.4890686 -0.46825719 1.2140001 247 129 191 255
-0.48515239 -0.46671429 1.21 247 129 191 255
-0.48284763 -0.46671429 1.21 247 129 191 255
-0.48054287 -0.46671429 1.21 247 129 191 255
-0.47823811 -0.46671429 1.21 247 129 191 255
-0.58121622 -0.46939906 1.223 247 129 191 255
-0.57699341 -0.46786386 1.2190001 247 129 191 255
-0.57467145 -0.46786386 1.2190001 247 129 191 255
-0.57234955 -0.46786386 1.2190001 247 129 191 255
-0.57002765 -0.46786386 1.2190001 247 129 191 255
-0.56770575 -0.46786386 1.2190001 247 129 191 255
-0.56538385 -0.46786386 1.2190001 247 129 191 255
-0.56490952 -0.46939906 1.223 247 129 191 255
-0.56442004 -0.47093433 1.2270001 247 129 191 255
-0.56437337 -0.47285336 1.2320001 247 129 191 255
-0.56385142 -0.4743886 1.2360001 247 129 191 255
-0.56376857 -0.47630763 1.2410001 247 129 191 255
-0.5632143 -0.47784287 1.245 247 129 191 255
-0.56309521 -0.4797619 1.25 247 129 191 255
-0.5607143 -0.4797619 1.25 247 129 191 255
-0.55833334 -0.4797619 1.25 247 129 191 255
-0.55817628 -0.48168099 1.2550001 247 129 191 255
-0.55977142 -0.48513526 1.2640001 247 129 191 255
-0.55736387 -0.48513526 1.2640001 247 129 191 255
-0.55671233 -0.48667046 1.268 247 129 191 255
-0.55429715 -0.48667046 1.268 247 129 191 255
-0.55405807 -0.4885895 1.273 247 129 191 255
-0.54946667 -0.48667046 1.268 247 129 191 255
-0.54705143 -0.48667046 1.268 247 129 191 255
-0.54463619 -0.48667046 1.268 247 129 191 255
-0.54435909 -0.4885895 1.273 247 129 191 255
-0.54193431 -0.4885895 1.273 247 129 191 255
-0.53950948 -0.4885895 1.273 247 129 191 255
-0.53919435 -0.49050862 1.2780001 247 129 191 255
-0.53676003 -0.49050862 1.2780001 247 129 191 255
-0.53641623 -0.49242768 1.2830001 247 129 191 255
-0.53397238 -0.49242768 1.2830001 247 129 191 255
-0.53152859 -0.49242768 1.2830001 247 129 191 255
-0.5270229 -0.49050862 1.2780001 247 129 191 255
-0.52458864 -0.49050862 1.2780001 247 129 191 255
-0.52419716 -0.49242768 1.2830001 247 129 191 255
-0.49206671 -0.46440953 1.21 247 129 191 255
-0.48976189 -0.46440953 1.21 247 129 191 255
-0.4890686 -0.4659448 1.2140001 247 129 191 255
-0.48515239 -0.46440953 1.21 247 129 191 255
-0.48284763 -0.46440953 1.21 247 129 191 255
-0.47895432 -0.46287432 1.2060001 247 129 191 255
-0.47665718 -0.46287432 1.2060001 247 129 191 255
-0.58121622 -0.46706957 1.223 247 129 191 255
-0.57462668 -0.46363243 1.2140001 247 129 191 255
-0.57231432 -0.46363243 1.2140001 247 129 191 255
-0.57000196 -0.46363243 1.2140001 247 129 191 255
-0.57002765 -0.46554193 1.2190001 247 129 191 255
-0.56770575 -0.46554193 1.2190001 247 129 191 255
-0.56538385 -0.46554193 1.2190001 247 129 191 255
-0.56490952 -0.46706957 1.223 247 129 191 255
-0.56258005 -0.46706957 1.223 247 129 191 255
-0.56437337 -0.4705067 1.2320001 247 129 191 255
-0.56385142 -0.47203431 1.2360001 247 129 191 255
-0.56558567 -0.47547141 1.245 247 129 191 255
-0.5632143 -0.47547141 1.245 247 129 191 255
-0.56309521 -0.47738096 1.25 247 129 191 255
-0.56295717 -0.47929052 1.2550001 247 129 191 255
-0.56056666 -0.47929052 1.2550001 247 129 191 255
-0.55817628 -0.47929052 1.2550001 247 129 191 255
-0.56154287 -0.48425525 1.268 247 129 191 255
-0.55912757 -0.48425525 1.268 247 129 191 255
-0.55671233 -0.48425525 1.268 247 129 191 255
-0.55429715 -0.48425525 1.268 247 129 191 255
-0.55405807 -0.48616475 1.273 247 129 191 255
-0.54946667 -0.48425525 1.268 247 129 191 255
-0.54705143 -0.48425525 1.268 247 129 191 255
-0.54463619 -0.48425525 1.268 247 129 191 255
-0.54435909 -0.48616475 1.273 247 129 191 255
-0.54406291 -0.4880743 1.2780001 247 129 191 255
-0.5416286 -0.4880743 1.2780001 247 129 191 255
-0.54130387 -0.48998383 1.2830001 247 129 191 255
-0.53886002 -0.48998383 1.2830001 247 129 191 255
-0.53152859 -0.48998383 1.2830001 247 129 191 255
-0.5290848 -0.48998383 1.2830001 247 129 191 255
-0.52664095 -0.48998383 1.2830001 247 129 191 255
-0.52419716 -0.48998383 1.2830001 247 129 191 255
-0.49206671 -0.46210477 1.21 247 129 191 255
-0.48976189 -0.46210477 1.21 247 129 191 255
-0.48745716 -0.46210477 1.21 247 129 191 255
-0.48515239 -0.46210477 1.21 247 129 191 255
-0.48284763 -0.46210477 1.21 247 129 191 255
-0.47895432 -0.46057719 1.2060001 247 129 191 255
-0.47665718 -0.46057719 1.2060001 247 129 191 255
-0.58121622 -0.46474001 1.223 247 129 191 255
-0.57462668 -0.46132004 1.2140001 247 129 191 255
-0.57231432 -0.46132004 1.2140001 247 129 191 255
-0.57000196 -0.46132004 1.2140001 247 129 191 255
-0.57002765 -0.46322003 1.2190001 247 129 191 255
-0.56770575 -0.46322003 1.2190001 247 129 191 255
-0.56538385 -0.46322003 1.2190001 247 129 191 255
-0.56490952 -0.46474001 1.223 247 129 191 255
-0.56258005 -0.46474001 1.223 247 129 191 255
-0.56620574 -0.46968001 1.2360001 247 129 191 255
-0.56613243 -0.47158003 1.2410001 247 129 191 255
-0.56558567 -0.47310001 1.245 247 129 191 255
-0.56547618 -0.47499999 1.25 247 129 191 255
-0.56534767 -0.47690004 1.2550001 247 129 191 255
-0.56295717 -0.47690004 1.2550001 247 129 191 255
-0.56056666 -0.47690004 1.2550001 247 129 191 255
-0.56395811 -0.48184001 1.268 247 129 191 255
-0.56375712 -0.48374 1.273 247 129 191 255
-0.56353718 -0.48564005 1.2780001 247 129 191 255
-0.56110293 -0.48564005 1.2780001 247 129 191 255
-0.55163336 -0.48374 1.273 247 129 191 255
-0.54920858 -0.48374 1.273 247 129 191 255
-0.5467838 -0.48374 1.273 247 129 191 255
-0.54435909 -0.48374 1.273 247 129 191 255
-0.54619145 -0.48754004 1.2830001 247 129 191 255
-0.49206671 -0.4598 1.21 247 129 191 255
-0.48976189 -0.4598 1.21 247 129 191 255
-0.48745716 -0.4598 1.21 247 129 191 255
-0.48515239 -0.4598 1.21 247 129 191 255
-0.48284763 -0.4598 1.21 247 129 191 255
-0.48054287 -0.4598 1.21 247 129 191 255
-0.47823811 -0.4598 1.21 247 129 191 255
-0.57462668 -0.45900765 1.2140001 247 129 191 255
-0.57231432 -0.45900765 1.2140001 247 129 191 255
-0.57000196 -0.45900765 1.2140001 247 129 191 255
-0.57002765 -0.46089813 1.2190001 247 129 191 255
-0.56770575 -0.46089813 1.2190001 247 129 191 255
-0.56538385 -0.46089813 1.2190001 247 129 191 255
-0.56490952 -0.46241048 1.223 247 129 191 255
-0.56258005 -0.46241048 1.223 247 129 191 255
-0.56620574 -0.46732572 1.2360001 247 129 191 255
-0.56613243 -0.46921623 1.2410001 247 129 191 255
-0.56558567 -0.47072858 1.245 247 129 191 255
-0.56547618 -0.47261906 1.25 247 129 191 255
-0.56534767 -0.47450957 1.2550001 247 129 191 255
-0.56295717 -0.47450957 1.2550001 247 129 191 255
-0.56056666 -0.47450957 1.2550001 247 129 191 255
-0.5661819 -0.48131526 1.273 247 129 191 255
-0.56375712 -0.48131526 1.273 247 129 191 255
-0.55380005 -0.48320577 1.2780001 247 129 191 255
-0.55136579 -0.48320577 1.2780001 247 129 191 255
-0.49369338 -0.45900765 1.2140001 247 129 191 255
-0.49138102 -0.45900765 1.2140001 247 129 191 255
-0.4890686 -0.45900765 1.2140001 247 129 191 255
-0.48675624 -0.45900765 1.2140001 247 129 191 255
-0.48284763 -0.45749527 1.21 247 129 191 255
-0.48054287 -0.45749527 1.21 247 129 191 255
-0.47823811 -0.45749527 1.21 247 129 191 255
-0.47593334 -0.45749527 1.21 247 129 191 255
-0.57467145 -0.45857623 1.2190001 247 129 191 255
-0.57000196 -0.45669526 1.2140001 247 129 191 255
-0.56768954 -0.45669526 1.2140001 247 129 191 255
-0.56537718 -0.45669526 1.2140001 247 129 191 255
-0.56306481 -0.45669526 1.2140001 247 129 191 255
-0.56306195 -0.45857623 1.2190001 247 129 191 255
-0.56074005 -0.45857623 1.2190001 247 129 191 255
-0.56620574 -0.46497145 1.2360001 247 129 191 255
-0.56613243 -0.4668524 1.2410001 247 129 191 255
-0.56785715 -0.47023809 1.25 247 129 191 255
-0.56773818 -0.47211906 1.2550001 247 129 191 255
-0.56714952 -0.47362381 1.2590001 247 129 191 255
-0.56475145 -0.47362381 1.2590001 247 129 191 255
-0.56235331 -0.47362381 1.2590001 247 129 191 255
-0.5661819 -0.47889045 1.273 247 129 191 255
-0.56375712 -0.47889045 1.273 247 129 191 255
-0.49138102 -0.45669526 1.2140001 247 129 191 255
-0.4890686 -0.45669526 1.2140001 247 129 191 255
-0.48876098 -0.45857623 1.2190001 247 129 191 255
-0.48643908 -0.45857623 1.2190001 247 129 191 255
-0.48411715 -0.45857623 1.2190001 247 129 191 255
-0.48179528 -0.45857623 1.2190001 247 129 191 255
-0.48262003 -0.46158576 1.2270001 247 129 191 255
-0.57000196 -0.4543829 1.2140001 247 129 191 255
-0.56768954 -0.4543829 1.2140001 247 129 191 255
-0.56537718 -0.4543829 1.2140001 247 129 191 255
-0.56306481 -0.4543829 1.2140001 247 129 191 255
-0.56306195 -0.45625433 1.2190001 247 129 191 255
-0.56074005 -0.45625433 1.2190001 247 129 191 255
-0.56620574 -0.46261716 1.2360001 247 129 191 255
-0.56613243 -0.46448857 1.2410001 247 129 191 255
-0.56785715 -0.46785715 1.25 247 129 191 255
-0.56773818 -0.46972862 1.2550001 247 129 191 255
-0.56714952 -0.47122574 1.2590001 247 129 191 255
-0.56699431 -0.47309715 1.2640001 247 129 191 255
-0.56637335 -0.4745943 1.268 247 129 191 255
-0.5661819 -0.4764657 1.273 247 129 191 255
-0.56375712 -0.4764657 1.273 247 129 191 255
-0.49572673 -0.45625433 1.2190001 247 129 191 255
-0.49340484 -0.45625433 1.2190001 247 129 191 255
-0.49108288 -0.45625433 1.2190001 247 129 191 255
-0.49036476 -0.45775142 1.223 247 129 191 255
-0.48803523 -0.45775142 1.223 247 129 191 255
-0.48570573 -0.45775142 1.223 247 129 191 255
-0.4833762 -0.45775142 1.223 247 129 191 255
-0.48262003 -0.45924863 1.2270001 247 129 191 255
-0.49828857 -0.4764657 1.273 247 129 191 255
-0.4958638 -0.4764657 1.273 247 129 191 255
-0.57000196 -0.4520705 1.2140001 247 129 191 255
-0.56768954 -0.4520705 1.2140001 247 129 191 255
-0.56537718 -0.4520705 1.2140001 247 129 191 255
-0.56306481 -0.4520705 1.2140001 247 129 191 255
-0.57270002 -0.46361428 1.245 247 129 191 255
-0.57032859 -0.46361428 1.245 247 129 191 255
-0.5679571 -0.46361428 1.245 247 129 191 255
-0.57012862 -0.46733814 1.2550001 247 129 191 255
-0.56954765 -0.46882764 1.2590001 247 129 191 255
-0.56940192 -0.47068954 1.2640001 247 129 191 255
-0.56699431 -0.47068954 1.2640001 247 129 191 255
-0.56637335 -0.47217903 1.268 247 129 191 255
-0.5661819 -0.47404096 1.273 247 129 191 255
-0.56597149 -0.47590292 1.2780001 247 129 191 255
-0.49572673 -0.4539324 1.2190001 247 129 191 255
-0.49340484 -0.4539324 1.2190001 247 129 191 255
-0.49269432 -0.45542192 1.223 247 129 191 255
-0.49036476 -0.45542192 1.223 247 129 191 255
-0.48803523 -0.45542192 1.223 247 129 191 255
-0.48570573 -0.45542192 1.223 247 129 191 255
-0.4833762 -0.45542192 1.223 247 129 191 255
-0.48458669 -0.45877337 1.2320001 247 129 191 255
-0.49828857 -0.47404096 1.273 247 129 191 255
-0.4958638 -0.47404096 1.273 247 129 191 255
-0.57180953 -0.46828192 1.2640001 247 129 191 255
-0.56940192 -0.46828192 1.2640001 247 129 191 255
-0.56699431 -0.46828192 1.2640001 247 129 191 255
-0.56637335 -0.46976382 1.268 247 129 191 255
-0.5661819 -0.47161618 1.273 247 129 191 255
-0.56597149 -0.47346863 1.2780001 247 129 191 255
-0.4980486 -0.45161051 1.2190001 247 129 191 255
-0.49572673 -0.45161051 1.2190001 247 129 191 255
-0.49502382 -0.4530924 1.223 247 129 191 255
-0.49269432 -0.4530924 1.223 247 129 191 255
-0.49036476 -0.4530924 1.223 247 129 191 255
-0.48803523 -0.4530924 1.223 247 129 191 255
-0.48729435 -0.45457432 1.2270001 247 129 191 255
-0.48693338 -0.45642671 1.2320001 247 129 191 255
-0.48458669 -0.45642671 1.2320001 247 129 191 255
-0.49633142 -0.46976382 1.268 247 129 191 255
-0.4958638 -0.47161618 1.273 247 129 191 255
-0.49537718 -0.47346863 1.2780001 247 129 191 255
-0.49294287 -0.47346863 1.2780001 247 129 191 255
-0.57180953 -0.46587431 1.2640001 247 129 191 255
-0.56940192 -0.46587431 1.2640001 247 129 191 255
-0.56878859 -0.46734858 1.268 247 129 191 255
-0.56860667 -0.46919143 1.273 247 129 191 255
-0.56840575 -0.47103435 1.2780001 247 129 191 255
