ply
format ascii 1.0
comment PCL generated
element vertex 1066
property float x
property float y
property float z
property uchar red
property uchar green
property uchar blue
property uchar alpha
element camera 0
property float view_px
property float view_py
property float view_pz
property float x_axisx
property float x_axisy
property float x_axisz
property float y_axisx
property float y_axisy
property float y_axisz
property float z_axisx
property float z_axisy
property float z_axisz
property float focal
property float scalex
property float scaley
property float centerx
property float centery
property int viewportx
property int viewporty
property float k1
property float k2
end_header
-0.17785239 -0.0221 1.105 0 0 255 255
-0.17511143 -0.022020001 1.1010001 0 0 255 255
-0.1730143 -0.022020001 1.1010001 0 0 255 255
-0.1715381 -0.0221 1.105 0 0 255 255
-0.16943333 -0.0221 1.105 0 0 255 255
-0.16732858 -0.0221 1.105 0 0 255 255
-0.16522381 -0.0221 1.105 0 0 255 255
-0.16311905 -0.0221 1.105 0 0 255 255
-0.16101429 -0.0221 1.105 0 0 255 255
-0.15890951 -0.0221 1.105 0 0 255 255
-0.15680477 -0.0221 1.105 0 0 255 255
-0.15512 -0.022160001 1.108 0 0 255 255
-0.15300952 -0.022160001 1.108 0 0 255 255
-0.15089905 -0.022160001 1.108 0 0 255 255
-0.14878859 -0.022160001 1.108 0 0 255 255
-0.1466781 -0.022160001 1.108 0 0 255 255
-0.18206191 -0.019995239 1.105 0 0 255 255
-0.17995714 -0.019995239 1.105 0 0 255 255
-0.17785239 -0.019995239 1.105 0 0 255 255
-0.17511143 -0.019922858 1.1010001 0 0 255 255
-0.1730143 -0.019922858 1.1010001 0 0 255 255
-0.1715381 -0.019995239 1.105 0 0 255 255
-0.16943333 -0.019995239 1.105 0 0 255 255
-0.16732858 -0.019995239 1.105 0 0 255 255
-0.16522381 -0.019995239 1.105 0 0 255 255
-0.16311905 -0.019995239 1.105 0 0 255 255
-0.16145143 -0.020049524 1.108 0 0 255 255
-0.15934095 -0.020049524 1.108 0 0 255 255
-0.15723048 -0.020049524 1.108 0 0 255 255
-0.15512 -0.020049524 1.108 0 0 255 255
-0.15300952 -0.020049524 1.108 0 0 255 255
-0.15089905 -0.020049524 1.108 0 0 255 255
-0.14878859 -0.020049524 1.108 0 0 255 255
-0.1466781 -0.020049524 1.108 0 0 255 255
-0.14456762 -0.020049524 1.108 0 0 255 255
-0.14245714 -0.020049524 1.108 0 0 255 255
-0.14085335 -0.020121906 1.1120001 0 0 255 255
-0.18416667 -0.017890476 1.105 0 0 255 255
-0.18206191 -0.017890476 1.105 0 0 255 255
-0.17995714 -0.017890476 1.105 0 0 255 255
-0.17785239 -0.017890476 1.105 0 0 255 255
-0.17574762 -0.017890476 1.105 0 0 255 255
-0.17364286 -0.017890476 1.105 0 0 255 255
-0.17200381 -0.017939048 1.108 0 0 255 255
-0.16989334 -0.017939048 1.108 0 0 255 255
-0.16778287 -0.017939048 1.108 0 0 255 255
-0.16567239 -0.017939048 1.108 0 0 255 255
-0.16356191 -0.017939048 1.108 0 0 255 255
-0.16145143 -0.017939048 1.108 0 0 255 255
-0.15991621 -0.01800381 1.1120001 0 0 255 255
-0.15779811 -0.01800381 1.1120001 0 0 255 255
-0.15568002 -0.01800381 1.1120001 0 0 255 255
-0.15300952 -0.017939048 1.108 0 0 255 255
-0.15089905 -0.017939048 1.108 0 0 255 255
-0.14932573 -0.01800381 1.1120001 0 0 255 255
-0.1466781 -0.017939048 1.108 0 0 255 255
-0.14456762 -0.017939048 1.108 0 0 255 255
-0.14245714 -0.017939048 1.108 0 0 255 255
-0.14085335 -0.01800381 1.1120001 0 0 255 255
-0.19048096 -0.015785715 1.105 0 0 255 255
-0.18837619 -0.015785715 1.105 0 0 255 255
-0.18627143 -0.015785715 1.105 0 0 255 255
-0.18416667 -0.015785715 1.105 0 0 255 255
-0.18206191 -0.015785715 1.105 0 0 255 255
-0.17995714 -0.015785715 1.105 0 0 255 255
-0.17785239 -0.015785715 1.105 0 0 255 255
-0.17622477 -0.015828572 1.108 0 0 255 255
-0.17411429 -0.015828572 1.108 0 0 255 255
-0.17262477 -0.015885716 1.1120001 0 0 255 255
-0.17050667 -0.015885716 1.1120001 0 0 255 255
-0.16838859 -0.015885716 1.1120001 0 0 255 255
-0.16627049 -0.015885716 1.1120001 0 0 255 255
-0.16459523 -0.015928572 1.115 0 0 255 255
-0.16247143 -0.015928572 1.115 0 0 255 255
-0.16034763 -0.015928572 1.115 0 0 255 255
-0.15822381 -0.015928572 1.115 0 0 255 255
-0.15609999 -0.015928572 1.115 0 0 255 255
-0.15397619 -0.015928572 1.115 0 0 255 255
-0.15185238 -0.015928572 1.115 0 0 255 255
-0.14932573 -0.015885716 1.1120001 0 0 255 255
-0.1466781 -0.015828572 1.108 0 0 255 255
-0.14456762 -0.015828572 1.108 0 0 255 255
-0.14245714 -0.015828572 1.108 0 0 255 255
-0.14085335 -0.015885716 1.1120001 0 0 255 255
-0.13873525 -0.015885716 1.1120001 0 0 255 255
-0.19521905 -0.013718096 1.108 0 0 255 255
-0.19310857 -0.013718096 1.108 0 0 255 255
-0.19048096 -0.013680952 1.105 0 0 255 255
-0.18837619 -0.013680952 1.105 0 0 255 255
-0.18627143 -0.013680952 1.105 0 0 255 255
-0.18416667 -0.013680952 1.105 0 0 255 255
-0.1825562 -0.013718096 1.108 0 0 255 255
-0.18044572 -0.013718096 1.108 0 0 255 255
-0.17833525 -0.013718096 1.108 0 0 255 255
-0.17686097 -0.013767621 1.1120001 0 0 255 255
-0.17474286 -0.013767621 1.1120001 0 0 255 255
-0.17309047 -0.013804762 1.115 0 0 255 255
-0.17096667 -0.013804762 1.115 0 0 255 255
-0.16884285 -0.013804762 1.115 0 0 255 255
-0.16731715 -0.013854287 1.1190001 0 0 255 255
-0.16518572 -0.013854287 1.1190001 0 0 255 255
-0.1630543 -0.013854287 1.1190001 0 0 255 255
-0.16092287 -0.013854287 1.1190001 0 0 255 255
-0.15879144 -0.013854287 1.1190001 0 0 255 255
-0.15666001 -0.013854287 1.1190001 0 0 255 255
-0.15452857 -0.013854287 1.1190001 0 0 255 255
-0.15239716 -0.013854287 1.1190001 0 0 255 255
-0.15026572 -0.013854287 1.1190001 0 0 255 255
-0.14813431 -0.013854287 1.1190001 0 0 255 255
-0.14548096 -0.013804762 1.115 0 0 255 255
-0.14297144 -0.013767621 1.1120001 0 0 255 255
-0.14085335 -0.013767621 1.1120001 0 0 255 255
-0.13873525 -0.013767621 1.1120001 0 0 255 255
-0.13698572 -0.013804762 1.115 0 0 255 255
-0.19679524 -0.011576191 1.105 0 0 255 255
-0.19469048 -0.011576191 1.105 0 0 255 255
-0.19258571 -0.011576191 1.105 0 0 255 255
-0.19099809 -0.01160762 1.108 0 0 255 255
-0.18837619 -0.011576191 1.105 0 0 255 255
-0.18627143 -0.011576191 1.105 0 0 255 255
-0.18466668 -0.01160762 1.108 0 0 255 255
-0.1825562 -0.01160762 1.108 0 0 255 255
-0.18044572 -0.01160762 1.108 0 0 255 255
-0.17897907 -0.011649525 1.1120001 0 0 255 255
-0.17733809 -0.011680952 1.115 0 0 255 255
-0.17521429 -0.011680952 1.115 0 0 255 255
-0.17371145 -0.011722858 1.1190001 0 0 255 255
-0.17158002 -0.011722858 1.1190001 0 0 255 255
-0.17005429 -0.011764762 1.123 0 0 255 255
-0.16836382 -0.011796191 1.126 0 0 255 255
-0.16621906 -0.011796191 1.126 0 0 255 255
-0.16407429 -0.011796191 1.126 0 0 255 255
-0.16192952 -0.011796191 1.126 0 0 255 255
-0.15935905 -0.011764762 1.123 0 0 255 255
-0.15722001 -0.011764762 1.123 0 0 255 255
-0.15508096 -0.011764762 1.123 0 0 255 255
-0.15239716 -0.011722858 1.1190001 0 0 255 255
-0.15026572 -0.011722858 1.1190001 0 0 255 255
-0.14813431 -0.011722858 1.1190001 0 0 255 255
-0.14548096 -0.011680952 1.115 0 0 255 255
-0.14335714 -0.011680952 1.115 0 0 255 255
-0.14123333 -0.011680952 1.115 0 0 255 255
-0.13910952 -0.011680952 1.115 0 0 255 255
-0.13698572 -0.011680952 1.115 0 0 255 255
-0.13534571 -0.011722858 1.1190001 0 0 255 255
-0.19679524 -0.0094714286 1.105 0 0 255 255
-0.19469048 -0.0094714286 1.105 0 0 255 255
-0.19258571 -0.0094714286 1.105 0 0 255 255
-0.19099809 -0.0094971433 1.108 0 0 255 255
-0.18888761 -0.0094971433 1.108 0 0 255 255
-0.18745145 -0.00953143 1.1120001 0 0 255 255
-0.18533336 -0.00953143 1.1120001 0 0 255 255
-0.18370953 -0.0095571429 1.115 0 0 255 255
-0.18158571 -0.0095571429 1.115 0 0 255 255
-0.18010572 -0.0095914295 1.1190001 0 0 255 255
-0.1779743 -0.0095914295 1.1190001 0 0 255 255
-0.17584287 -0.0095914295 1.1190001 0 0 255 255
-0.1743324 -0.0096257143 1.123 0 0 255 255
-0.17219333 -0.0096257143 1.123 0 0 255 255
-0.17005429 -0.0096257143 1.123 0 0 255 255
-0.16896191 -0.0096857138 1.13 0 0 255 255
-0.16680951 -0.0096857138 1.13 0 0 255 255
-0.16465715 -0.0096857138 1.13 0 0 255 255
-0.16308001 -0.0097200004 1.1340001 0 0 255 255
-0.16035238 -0.0096857138 1.13 0 0 255 255
-0.15764 -0.009651429 1.126 0 0 255 255
-0.15508096 -0.0096257143 1.123 0 0 255 255
-0.15294191 -0.0096257143 1.123 0 0 255 255
-0.15080285 -0.0096257143 1.123 0 0 255 255
-0.1486638 -0.0096257143 1.123 0 0 255 255
-0.14600286 -0.0095914295 1.1190001 0 0 255 255
-0.14387144 -0.0095914295 1.1190001 0 0 255 255
-0.14174001 -0.0095914295 1.1190001 0 0 255 255
-0.13960858 -0.0095914295 1.1190001 0 0 255 255
-0.13747716 -0.0095914295 1.1190001 0 0 255 255
-0.13534571 -0.0095914295 1.1190001 0 0 255 255
-0.13369048 -0.0096257143 1.123 0 0 255 255
-0.13237143 -0.0096857138 1.13 0 0 255 255
-0.1989 -0.0073666666 1.105 0 0 255 255
-0.19679524 -0.0073666666 1.105 0 0 255 255
-0.19469048 -0.0073666666 1.105 0 0 255 255
-0.19258571 -0.0073666666 1.105 0 0 255 255
-0.19099809 -0.0073866672 1.108 0 0 255 255
-0.18888761 -0.0073866672 1.108 0 0 255 255
-0.18745145 -0.0074133342 1.1120001 0 0 255 255
-0.18583333 -0.0074333334 1.115 0 0 255 255
-0.18370953 -0.0074333334 1.115 0 0 255 255
-0.18223715 -0.0074600005 1.1190001 0 0 255 255
-0.18074952 -0.0074866666 1.123 0 0 255 255
-0.17861047 -0.0074866666 1.123 0 0 255 255
-0.17694287 -0.0075066672 1.126 0 0 255 255
-0.1747981 -0.0075066672 1.126 0 0 255 255
-0.17326666 -0.0075333333 1.13 0 0 255 255
-0.17172001 -0.0075600008 1.1340001 0 0 255 255
-0.17015809 -0.0075866668 1.138 0 0 255 255
-0.16843334 -0.007606667 1.141 0 0 255 255
-0.16625999 -0.007606667 1.141 0 0 255 255
-0.16466193 -0.0076333336 1.1450001 0 0 255 255
-0.16248097 -0.0076333336 1.1450001 0 0 255 255
-0.15876001 -0.0075600008 1.1340001 0 0 255 255
-0.15549524 -0.0075066672 1.126 0 0 255 255
-0.15294191 -0.0074866666 1.123 0 0 255 255
-0.15080285 -0.0074866666 1.123 0 0 255 255
-0.1486638 -0.0074866666 1.123 0 0 255 255
-0.14652476 -0.0074866666 1.123 0 0 255 255
-0.14387144 -0.0074600005 1.1190001 0 0 255 255
-0.14174001 -0.0074600005 1.1190001 0 0 255 255
-0.14010762 -0.0074866666 1.123 0 0 255 255
-0.13796857 -0.0074866666 1.123 0 0 255 255
-0.13582952 -0.0074866666 1.123 0 0 255 255
-0.13369048 -0.0074866666 1.123 0 0 255 255
-0.13237143 -0.0075333333 1.13 0 0 255 255
-0.1989 -0.005261905 1.105 0 0 255 255
-0.19679524 -0.005261905 1.105 0 0 255 255
-0.19469048 -0.005261905 1.105 0 0 255 255
-0.19258571 -0.005261905 1.105 0 0 255 255
-0.19099809 -0.0052761906 1.108 0 0 255 255
-0.18888761 -0.0052761906 1.108 0 0 255 255
-0.18795714 -0.0053095235 1.115 0 0 255 255
-0.18583333 -0.0053095235 1.115 0 0 255 255
-0.1843686 -0.0053285714 1.1190001 0 0 255 255
-0.18223715 -0.0053285714 1.1190001 0 0 255 255
-0.18074952 -0.0053476193 1.123 0 0 255 255
-0.17861047 -0.0053476193 1.123 0 0 255 255
-0.17694287 -0.0053619049 1.126 0 0 255 255
-0.17541905 -0.0053809523 1.13 0 0 255 255
-0.17449333 -0.0054190475 1.138 0 0 255 255
-0.17338574 -0.0054523814 1.1450001 0 0 255 255
-0.17120478 -0.0054523814 1.1450001 0 0 255 255
-0.16961429 -0.0054714289 1.149 0 0 255 255
-0.16742572 -0.0054714289 1.149 0 0 255 255
-0.16581237 -0.0054904758 1.153 0 0 255 255
-0.16304858 -0.0054714289 1.149 0 0 255 255
-0.16086 -0.0054714289 1.149 0 0 255 255
-0.15867144 -0.0054714289 1.149 0 0 255 255
-0.15648286 -0.0054714289 1.149 0 0 255 255
-0.15429428 -0.0054714289 1.149 0 0 255 255
-0.14959046 -0.0053809523 1.13 0 0 255 255
-0.14743809 -0.0053809523 1.13 0 0 255 255
-0.14528571 -0.0053809523 1.13 0 0 255 255
-0.14313333 -0.0053809523 1.13 0 0 255 255
-0.14048192 -0.0053619049 1.126 0 0 255 255
-0.13833715 -0.0053619049 1.126 0 0 255 255
-0.13667618 -0.0053809523 1.13 0 0 255 255
-0.13452381 -0.0053809523 1.13 0 0 255 255
-0.13237143 -0.0053809523 1.13 0 0 255 255
-0.20027715 -0.0031457145 1.1010001 0 0 255 255
-0.19818002 -0.0031457145 1.1010001 0 0 255 255
-0.19608286 -0.0031457145 1.1010001 0 0 255 255
-0.19469048 -0.0031571428 1.105 0 0 255 255
-0.19310857 -0.0031657144 1.108 0 0 255 255
-0.19099809 -0.0031657144 1.108 0 0 255 255
-0.18956953 -0.0031771432 1.1120001 0 0 255 255
-0.18795714 -0.0031857144 1.115 0 0 255 255
-0.18650001 -0.0031971431 1.1190001 0 0 255 255
-0.18502763 -0.0032085713 1.123 0 0 255 255
-0.18288857 -0.0032085713 1.123 0 0 255 255
-0.18123238 -0.003217143 1.126 0 0 255 255
-0.17972381 -0.0032285713 1.13 0 0 255 255
-0.17820001 -0.0032400002 1.1340001 0 0 255 255
-0.17666095 -0.0032514285 1.138 0 0 255 255
-0.17556667 -0.0032714289 1.1450001 0 0 255 255
-0.17459714 -0.0032942859 1.153 0 0 255 255
-0.17299907 -0.0033057143 1.1570001 0 0 255 255
-0.17079525 -0.0033057143 1.1570001 0 0 255 255
-0.16859144 -0.0033057143 1.1570001 0 0 255 255
-0.16638763 -0.0033057143 1.1570001 0 0 255 255
-0.16418381 -0.0033057143 1.1570001 0 0 255 255
-0.16198 -0.0033057143 1.1570001 0 0 255 255
-0.1597762 -0.0033057143 1.1570001 0 0 255 255
-0.15757239 -0.0033057143 1.1570001 0 0 255 255
-0.15536858 -0.0033057143 1.1570001 0 0 255 255
-0.15263523 -0.0032942859 1.153 0 0 255 255
-0.14848191 -0.0032514285 1.138 0 0 255 255
-0.14631429 -0.0032514285 1.138 0 0 255 255
-0.14364001 -0.0032400002 1.1340001 0 0 255 255
-0.14148 -0.0032400002 1.1340001 0 0 255 255
-0.13932002 -0.0032400002 1.1340001 0 0 255 255
-0.13716 -0.0032400002 1.1340001 0 0 255 255
-0.13500002 -0.0032400002 1.1340001 0 0 255 255
-0.13284001 -0.0032400002 1.1340001 0 0 255 255
-0.20237429 -0.0010485714 1.1010001 0 0 255 255
-0.20027715 -0.0010485714 1.1010001 0 0 255 255
-0.19818002 -0.0010485714 1.1010001 0 0 255 255
-0.19608286 -0.0010485714 1.1010001 0 0 255 255
-0.19469048 -0.001052381 1.105 0 0 255 255
-0.19310857 -0.0010552381 1.108 0 0 255 255
-0.19099809 -0.0010552381 1.108 0 0 255 255
-0.18956953 -0.0010590478 1.1120001 0 0 255 255
-0.18795714 -0.0010619047 1.115 0 0 255 255
-0.18650001 -0.0010657144 1.1190001 0 0 255 255
-0.18502763 -0.0010695239 1.123 0 0 255 255
-0.18337715 -0.001072381 1.126 0 0 255 255
-0.18187618 -0.0010761905 1.13 0 0 255 255
-0.18036 -0.0010800001 1.1340001 0 0 255 255
-0.1793 -0.0010866667 1.141 0 0 255 255
-0.17712666 -0.0010866667 1.141 0 0 255 255
-0.17679332 -0.0010980952 1.153 0 0 255 255
-0.17520286 -0.0011019048 1.1570001 0 0 255 255
-0.17359714 -0.0011057142 1.161 0 0 255 255
-0.17138572 -0.0011057142 1.161 0 0 255 255
-0.16917428 -0.0011057142 1.161 0 0 255 255
-0.16696286 -0.0011057142 1.161 0 0 255 255
-0.16475143 -0.0011057142 1.161 0 0 255 255
-0.16254 -0.0011057142 1.161 0 0 255 255
-0.16088097 -0.0011095239 1.1650001 0 0 255 255
-0.15866192 -0.0011095239 1.1650001 0 0 255 255
-0.15644287 -0.0011095239 1.1650001 0 0 255 255
-0.15422381 -0.0011095239 1.1650001 0 0 255 255
-0.15200476 -0.0011095239 1.1650001 0 0 255 255
-0.14978573 -0.0011095239 1.1650001 0 0 255 255
-0.14414667 -0.0010838095 1.138 0 0 255 255
-0.14197905 -0.0010838095 1.138 0 0 255 255
-0.13932002 -0.0010800001 1.1340001 0 0 255 255
-0.13716 -0.0010800001 1.1340001 0 0 255 255
-0.13500002 -0.0010800001 1.1340001 0 0 255 255
-0.13284001 -0.0010800001 1.1340001 0 0 255 255
-0.20237429 0.0010485714 1.1010001 0 0 255 255
-0.20027715 0.0010485714 1.1010001 0 0 255 255
-0.19818002 0.0010485714 1.1010001 0 0 255 255
-0.19679524 0.001052381 1.105 0 0 255 255
-0.19469048 0.001052381 1.105 0 0 255 255
-0.19310857 0.0010552381 1.108 0 0 255 255
-0.19168763 0.0010590478 1.1120001 0 0 255 255
-0.19008096 0.0010619047 1.115 0 0 255 255
-0.18863145 0.0010657144 1.1190001 0 0 255 255
-0.18716668 0.0010695239 1.123 0 0 255 255
-0.1855219 0.001072381 1.126 0 0 255 255
-0.18468001 0.0010800001 1.1340001 0 0 255 255
-0.18316381 0.0010838095 1.138 0 0 255 255
-0.18099619 0.0010838095 1.138 0 0 255 255
-0.18055715 0.0010942857 1.149 0 0 255 255
-0.17836857 0.0010942857 1.149 0 0 255 255
-0.17740667 0.0011019048 1.1570001 0 0 255 255
-0.17580856 0.0011057142 1.161 0 0 255 255
-0.17419524 0.0011095239 1.1650001 0 0 255 255
-0.17256667 0.0011133334 1.169 0 0 255 255
-0.17034 0.0011133334 1.169 0 0 255 255
-0.16811334 0.0011133334 1.169 0 0 255 255
-0.16588667 0.0011133334 1.169 0 0 255 255
-0.16366 0.0011133334 1.169 0 0 255 255
-0.16143334 0.0011133334 1.169 0 0 255 255
-0.15920667 0.0011133334 1.169 0 0 255 255
-0.15698001 0.0011133334 1.169 0 0 255 255
-0.15475333 0.0011133334 1.169 0 0 255 255
-0.15200476 0.0011095239 1.1650001 0 0 255 255
-0.14978573 0.0011095239 1.1650001 0 0 255 255
-0.14452668 0.0010866667 1.141 0 0 255 255
-0.14197905 0.0010838095 1.138 0 0 255 255
-0.13981143 0.0010838095 1.138 0 0 255 255
-0.13764381 0.0010838095 1.138 0 0 255 255
-0.13547619 0.0010838095 1.138 0 0 255 255
-0.13330857 0.0010838095 1.138 0 0 255 255
-0.20731904 0.0031571428 1.105 0 0 255 255
-0.20521429 0.0031571428 1.105 0 0 255 255
-0.20237429 0.0031457145 1.1010001 0 0 255 255
-0.20027715 0.0031457145 1.1010001 0 0 255 255
-0.19818002 0.0031457145 1.1010001 0 0 255 255
-0.19679524 0.0031571428 1.105 0 0 255 255
-0.19521905 0.0031657144 1.108 0 0 255 255
-0.19310857 0.0031657144 1.108 0 0 255 255
-0.19220476 0.0031857144 1.115 0 0 255 255
-0.19076286 0.0031971431 1.1190001 0 0 255 255
-0.18930572 0.0032085713 1.123 0 0 255 255
-0.18833333 0.0032285713 1.13 0 0 255 255
-0.18684 0.0032400002 1.1340001 0 0 255 255
-0.18533143 0.0032514285 1.138 0 0 255 255
-0.18364668 0.0032600001 1.141 0 0 255 255
-0.18210953 0.0032714289 1.1450001 0 0 255 255
-0.18118571 0.0032942859 1.153 0 0 255 255
-0.17961048 0.0033057143 1.1570001 0 0 255 255
-0.17863335 0.0033285718 1.1650001 0 0 255 255
-0.17702 0.0033399998 1.169 0 0 255 255
-0.17479333 0.0033399998 1.169 0 0 255 255
-0.17315716 0.0033514288 1.1730001 0 0 255 255
-0.17092286 0.0033514288 1.1730001 0 0 255 255
-0.16868858 0.0033514288 1.1730001 0 0 255 255
-0.16645429 0.0033514288 1.1730001 0 0 255 255
-0.16422001 0.0033514288 1.1730001 0 0 255 255
-0.1625381 0.0033628573 1.177 0 0 255 255
-0.15975145 0.0033514288 1.1730001 0 0 255 255
-0.15751716 0.0033514288 1.1730001 0 0 255 255
-0.15528287 0.0033514288 1.1730001 0 0 255 255
-0.15200476 0.0033285718 1.1650001 0 0 255 255
-0.14978573 0.0033285718 1.1650001 0 0 255 255
-0.14756668 0.0033285718 1.1650001 0 0 255 255
-0.14235334 0.0032600001 1.141 0 0 255 255
-0.14018001 0.0032600001 1.141 0 0 255 255
-0.13764381 0.0032514285 1.138 0 0 255 255
-0.13547619 0.0032514285 1.138 0 0 255 255
-0.13330857 0.0032514285 1.138 0 0 255 255
-0.20731904 0.005261905 1.105 0 0 255 255
-0.20447144 0.0052428572 1.1010001 0 0 255 255
-0.20237429 0.0052428572 1.1010001 0 0 255 255
-0.20027715 0.0052428572 1.1010001 0 0 255 255
-0.19818002 0.0052428572 1.1010001 0 0 255 255
-0.19679524 0.005261905 1.105 0 0 255 255
-0.19521905 0.0052761906 1.108 0 0 255 255
-0.19310857 0.0052761906 1.108 0 0 255 255
-0.19220476 0.0053095235 1.115 0 0 255 255
-0.19076286 0.0053285714 1.1190001 0 0 255 255
-0.18981142 0.0053619049 1.126 0 0 255 255
-0.18900001 0.0054000001 1.1340001 0 0 255 255
-0.18749905 0.0054190475 1.138 0 0 255 255
-0.18647143 0.0054523814 1.1450001 0 0 255 255
-0.1849343 0.0054714289 1.149 0 0 255 255
-0.18274572 0.0054714289 1.149 0 0 255 255
-0.1818143 0.0055095241 1.1570001 0 0 255 255
-0.18023142 0.0055285715 1.161 0 0 255 255
-0.17863335 0.0055476194 1.1650001 0 0 255 255
-0.17702 0.0055666668 1.169 0 0 255 255
-0.17539144 0.0055857147 1.1730001 0 0 255 255
-0.17374763 0.0056047621 1.177 0 0 255 255
-0.17150572 0.0056047621 1.177 0 0 255 255
-0.16926381 0.0056047621 1.177 0 0 255 255
-0.16758953 0.00562381 1.1810001 0 0 255 255
-0.16534001 0.00562381 1.1810001 0 0 255 255
-0.16309048 0.00562381 1.1810001 0 0 255 255
-0.16029619 0.0056047621 1.177 0 0 255 255
-0.15805428 0.0056047621 1.177 0 0 255 255
-0.1558124 0.0056047621 1.177 0 0 255 255
-0.15252666 0.0055666668 1.169 0 0 255 255
-0.1503 0.0055666668 1.169 0 0 255 255
-0.14858001 0.0055857147 1.1730001 0 0 255 255
-0.14634572 0.0055857147 1.1730001 0 0 255 255
-0.14460286 0.0056047621 1.177 0 0 255 255
-0.14011905 0.0056047621 1.177 0 0 255 255
-0.13787715 0.0056047621 1.177 0 0 255 255
-0.20731904 0.0073666666 1.105 0 0 255 255
-0.20372856 0.007313333 1.097 0 0 255 255
-0.20163904 0.007313333 1.097 0 0 255 255
-0.20027715 0.0073400005 1.1010001 0 0 255 255
-0.19818002 0.0073400005 1.1010001 0 0 255 255
-0.19679524 0.0073666666 1.105 0 0 255 255
-0.19469048 0.0073666666 1.105 0 0 255 255
-0.19310857 0.0073866672 1.108 0 0 255 255
-0.19220476 0.0074333334 1.115 0 0 255 255
-0.19144475 0.0074866666 1.123 0 0 255 255
-0.18981142 0.0075066672 1.126 0 0 255 255
-0.18966667 0.0075866668 1.138 0 0 255 255
-0.1886524 0.0076333336 1.1450001 0 0 255 255
-0.18712285 0.0076600001 1.149 0 0 255 255
-0.1849343 0.0076600001 1.149 0 0 255 255
-0.18401811 0.0077133342 1.1570001 0 0 255 255
-0.18244286 0.0077399998 1.161 0 0 255 255
-0.1808524 0.0077666673 1.1650001 0 0 255 255
-0.17924666 0.0077933338 1.169 0 0 255 255
-0.17762573 0.0078199999 1.1730001 0 0 255 255
-0.17598952 0.0078466665 1.177 0 0 255 255
-0.17374763 0.0078466665 1.177 0 0 255 255
-0.17208859 0.007873334 1.1810001 0 0 255 255
-0.16983907 0.007873334 1.1810001 0 0 255 255
-0.16758953 0.007873334 1.1810001 0 0 255 255
-0.16534001 0.007873334 1.1810001 0 0 255 255
-0.16309048 0.007873334 1.1810001 0 0 255 255
-0.16084096 0.007873334 1.1810001 0 0 255 255
-0.15859143 0.007873334 1.1810001 0 0 255 255
-0.1558124 0.0078466665 1.177 0 0 255 255
-0.15357049 0.0078466665 1.177 0 0 255 255
-0.15081429 0.0078199999 1.1730001 0 0 255 255
-0.14858001 0.0078199999 1.1730001 0 0 255 255
-0.14684477 0.0078466665 1.177 0 0 255 255
-0.14460286 0.0078466665 1.177 0 0 255 255
-0.14011905 0.0078466665 1.177 0 0 255 255
-0.20731904 0.0094714286 1.105 0 0 255 255
-0.20372856 0.0094028572 1.097 0 0 255 255
-0.20163904 0.0094028572 1.097 0 0 255 255
-0.20027715 0.0094371429 1.1010001 0 0 255 255
-0.1989 0.0094714286 1.105 0 0 255 255
-0.19679524 0.0094714286 1.105 0 0 255 255
-0.19469048 0.0094714286 1.105 0 0 255 255
-0.19380572 0.00953143 1.1120001 0 0 255 255
-0.19289429 0.0095914295 1.1190001 0 0 255 255
-0.19195619 0.009651429 1.126 0 0 255 255
-0.18981142 0.009651429 1.126 0 0 255 255
-0.19016667 0.00978 1.141 0 0 255 255
-0.1886524 0.0098142866 1.1450001 0 0 255 255
-0.18712285 0.0098485723 1.149 0 0 255 255
-0.1849343 0.0098485723 1.149 0 0 255 255
-0.1846543 0.0099514285 1.161 0 0 255 255
-0.18307143 0.0099857152 1.1650001 0 0 255 255
-0.18147334 0.01002 1.169 0 0 255 255
-0.17924666 0.01002 1.169 0 0 255 255
-0.17823143 0.010088571 1.177 0 0 255 255
-0.17658764 0.010122858 1.1810001 0 0 255 255
-0.17433812 0.010122858 1.1810001 0 0 255 255
-0.17208859 0.010122858 1.1810001 0 0 255 255
-0.1704143 0.010157144 1.1850001 0 0 255 255
-0.16758953 0.010122858 1.1810001 0 0 255 255
-0.16534001 0.010122858 1.1810001 0 0 255 255
-0.16364287 0.010157144 1.1850001 0 0 255 255
-0.16084096 0.010122858 1.1810001 0 0 255 255
-0.15859143 0.010122858 1.1810001 0 0 255 255
-0.15634191 0.010122858 1.1810001 0 0 255 255
-0.15357049 0.010088571 1.177 0 0 255 255
-0.15132858 0.010088571 1.177 0 0 255 255
-0.14908667 0.010088571 1.177 0 0 255 255
-0.14684477 0.010088571 1.177 0 0 255 255
-0.14460286 0.010088571 1.177 0 0 255 255
-0.14236096 0.010088571 1.177 0 0 255 255
-0.14011905 0.010088571 1.177 0 0 255 255
-0.20656858 0.011534287 1.1010001 0 0 255 255
-0.20372856 0.011492381 1.097 0 0 255 255
-0.20163904 0.011492381 1.097 0 0 255 255
-0.20027715 0.011534287 1.1010001 0 0 255 255
-0.1989 0.011576191 1.105 0 0 255 255
-0.19732954 0.01160762 1.108 0 0 255 255
-0.19521905 0.01160762 1.108 0 0 255 255
-0.19502573 0.011722858 1.1190001 0 0 255 255
-0.19410096 0.011796191 1.126 0 0 255 255
-0.19195619 0.011796191 1.126 0 0 255 255
-0.1904857 0.011838095 1.13 0 0 255 255
-0.19150001 0.012037144 1.149 0 0 255 255
-0.18931143 0.012037144 1.149 0 0 255 255
-0.18712285 0.012037144 1.149 0 0 255 255
-0.18557809 0.012079047 1.153 0 0 255 255
-0.1846543 0.012162857 1.161 0 0 255 255
-0.18307143 0.012204763 1.1650001 0 0 255 255
-0.18209431 0.012288572 1.1730001 0 0 255 255
-0.17986001 0.012288572 1.1730001 0 0 255 255
-0.17823143 0.012330476 1.177 0 0 255 255
-0.17658764 0.012372382 1.1810001 0 0 255 255
-0.17492858 0.012414286 1.1850001 0 0 255 255
-0.17267144 0.012414286 1.1850001 0 0 255 255
-0.1704143 0.012414286 1.1850001 0 0 255 255
-0.16815715 0.012414286 1.1850001 0 0 255 255
-0.16590001 0.012414286 1.1850001 0 0 255 255
-0.16364287 0.012414286 1.1850001 0 0 255 255
-0.16138572 0.012414286 1.1850001 0 0 255 255
-0.15912858 0.012414286 1.1850001 0 0 255 255
-0.15634191 0.012372382 1.1810001 0 0 255 255
-0.15409239 0.012372382 1.1810001 0 0 255 255
-0.15184286 0.012372382 1.1810001 0 0 255 255
-0.14959334 0.012372382 1.1810001 0 0 255 255
-0.14734381 0.012372382 1.1810001 0 0 255 255
-0.14460286 0.012330476 1.177 0 0 255 255
-0.14236096 0.012330476 1.177 0 0 255 255
-0.14011905 0.012330476 1.177 0 0 255 255
-0.13834573 0.012372382 1.1810001 0 0 255 255
-0.20656858 0.01363143 1.1010001 0 0 255 255
-0.20372856 0.013581905 1.097 0 0 255 255
-0.20163904 0.013581905 1.097 0 0 255 255
-0.20027715 0.01363143 1.1010001 0 0 255 255
-0.1989 0.013680952 1.105 0 0 255 255
-0.19732954 0.013718096 1.108 0 0 255 255
-0.19521905 0.013718096 1.108 0 0 255 255
-0.19502573 0.013854287 1.1190001 0 0 255 255
-0.19410096 0.013940953 1.126 0 0 255 255
-0.19195619 0.013940953 1.126 0 0 255 255
-0.1904857 0.013990476 1.13 0 0 255 255
-0.19150001 0.014225715 1.149 0 0 255 255
-0.18931143 0.014225715 1.149 0 0 255 255
-0.18712285 0.014225715 1.149 0 0 255 255
-0.18557809 0.014275238 1.153 0 0 255 255
-0.18529049 0.014423811 1.1650001 0 0 255 255
-0.18307143 0.014423811 1.1650001 0 0 255 255
-0.18209431 0.014522858 1.1730001 0 0 255 255
-0.17986001 0.014522858 1.1730001 0 0 255 255
-0.17823143 0.014572381 1.177 0 0 255 255
-0.17718573 0.014671429 1.1850001 0 0 255 255
-0.17492858 0.014671429 1.1850001 0 0 255 255
-0.17267144 0.014671429 1.1850001 0 0 255 255
-0.1704143 0.014671429 1.1850001 0 0 255 255
-0.16815715 0.014671429 1.1850001 0 0 255 255
-0.16590001 0.014671429 1.1850001 0 0 255 255
-0.16364287 0.014671429 1.1850001 0 0 255 255
-0.16138572 0.014671429 1.1850001 0 0 255 255
-0.15912858 0.014671429 1.1850001 0 0 255 255
-0.15687144 0.014671429 1.1850001 0 0 255 255
-0.15409239 0.014621906 1.1810001 0 0 255 255
-0.15184286 0.014621906 1.1810001 0 0 255 255
-0.15010001 0.014671429 1.1850001 0 0 255 255
-0.14734381 0.014621906 1.1810001 0 0 255 255
-0.14509429 0.014621906 1.1810001 0 0 255 255
-0.14284478 0.014621906 1.1810001 0 0 255 255
-0.14059526 0.014621906 1.1810001 0 0 255 255
-0.13834573 0.014621906 1.1810001 0 0 255 255
-0.20372856 0.015671428 1.097 0 0 255 255
-0.20163904 0.015671428 1.097 0 0 255 255
-0.20027715 0.015728572 1.1010001 0 0 255 255
-0.19818002 0.015728572 1.1010001 0 0 255 255
-0.19679524 0.015785715 1.105 0 0 255 255
-0.19469048 0.015785715 1.105 0 0 255 255
-0.19502573 0.015985716 1.1190001 0 0 255 255
-0.19479047 0.016142858 1.13 0 0 255 255
-0.1926381 0.016142858 1.13 0 0 255 255
-0.19183429 0.016257143 1.138 0 0 255 255
-0.19150001 0.016414287 1.149 0 0 255 255
-0.18931143 0.016414287 1.149 0 0 255 255
-0.18777429 0.016471429 1.153 0 0 255 255
-0.18622191 0.016528573 1.1570001 0 0 255 255
-0.18529049 0.016642857 1.1650001 0 0 255 255
-0.18370001 0.0167 1.169 0 0 255 255
-0.18271525 0.016814286 1.177 0 0 255 255
-0.18047334 0.016814286 1.177 0 0 255 255
-0.17883717 0.01687143 1.1810001 0 0 255 255
-0.17718573 0.016928572 1.1850001 0 0 255 255
-0.17492858 0.016928572 1.1850001 0 0 255 255
-0.17267144 0.016928572 1.1850001 0 0 255 255
-0.1704143 0.016928572 1.1850001 0 0 255 255
-0.16815715 0.016928572 1.1850001 0 0 255 255
-0.16590001 0.016928572 1.1850001 0 0 255 255
-0.16364287 0.016928572 1.1850001 0 0 255 255
-0.16138572 0.016928572 1.1850001 0 0 255 255
-0.15912858 0.016928572 1.1850001 0 0 255 255
-0.15687144 0.016928572 1.1850001 0 0 255 255
-0.15461428 0.016928572 1.1850001 0 0 255 255
-0.15235715 0.016928572 1.1850001 0 0 255 255
-0.15010001 0.016928572 1.1850001 0 0 255 255
-0.14784285 0.016928572 1.1850001 0 0 255 255
-0.14509429 0.01687143 1.1810001 0 0 255 255
-0.14284478 0.01687143 1.1810001 0 0 255 255
-0.14059526 0.01687143 1.1810001 0 0 255 255
-0.13881429 0.016928572 1.1850001 0 0 255 255
-0.13655715 0.016928572 1.1850001 0 0 255 255
-0.13430001 0.016928572 1.1850001 0 0 255 255
-0.20372856 0.017760953 1.097 0 0 255 255
-0.20163904 0.017760953 1.097 0 0 255 255
-0.19954953 0.017760953 1.097 0 0 255 255
-0.19818002 0.017825715 1.1010001 0 0 255 255
-0.19537048 0.017760953 1.097 0 0 255 255
-0.19328095 0.017760953 1.097 0 0 255 255
-0.19502573 0.018117143 1.1190001 0 0 255 255
-0.19289429 0.018117143 1.1190001 0 0 255 255
-0.1940019 0.018424762 1.138 0 0 255 255
-0.19183429 0.018424762 1.138 0 0 255 255
-0.19150001 0.018602857 1.149 0 0 255 255
-0.18931143 0.018602857 1.149 0 0 255 255
-0.18777429 0.018667618 1.153 0 0 255 255
-0.18686572 0.018797142 1.161 0 0 255 255
-0.18592668 0.018926667 1.169 0 0 255 255
-0.18370001 0.018926667 1.169 0 0 255 255
-0.18209431 0.018991429 1.1730001 0 0 255 255
-0.18047334 0.019056192 1.177 0 0 255 255
-0.17883717 0.019120954 1.1810001 0 0 255 255
-0.17718573 0.019185714 1.1850001 0 0 255 255
-0.17492858 0.019185714 1.1850001 0 0 255 255
-0.17267144 0.019185714 1.1850001 0 0 255 255
-0.1704143 0.019185714 1.1850001 0 0 255 255
-0.16815715 0.019185714 1.1850001 0 0 255 255
-0.16590001 0.019185714 1.1850001 0 0 255 255
-0.16364287 0.019185714 1.1850001 0 0 255 255
-0.16138572 0.019185714 1.1850001 0 0 255 255
-0.15912858 0.019185714 1.1850001 0 0 255 255
-0.15687144 0.019185714 1.1850001 0 0 255 255
-0.15461428 0.019185714 1.1850001 0 0 255 255
-0.15235715 0.019185714 1.1850001 0 0 255 255
-0.15010001 0.019185714 1.1850001 0 0 255 255
-0.14784285 0.019185714 1.1850001 0 0 255 255
-0.14558572 0.019185714 1.1850001 0 0 255 255
-0.14332858 0.019185714 1.1850001 0 0 255 255
-0.14059526 0.019120954 1.1810001 0 0 255 255
-0.13834573 0.019120954 1.1810001 0 0 255 255
-0.13655715 0.019185714 1.1850001 0 0 255 255
-0.13430001 0.019185714 1.1850001 0 0 255 255
-0.20525526 0.019796191 1.0940001 0 0 255 255
-0.20317145 0.019796191 1.0940001 0 0 255 255
-0.20108762 0.019796191 1.0940001 0 0 255 255
-0.19954953 0.019850476 1.097 0 0 255 255
-0.19818002 0.019922858 1.1010001 0 0 255 255
-0.19537048 0.019850476 1.097 0 0 255 255
-0.19328095 0.019850476 1.097 0 0 255 255
-0.19119143 0.019850476 1.097 0 0 255 255
-0.19616953 0.02059238 1.138 0 0 255 255
-0.1940019 0.02059238 1.138 0 0 255 255
-0.19183429 0.02059238 1.138 0 0 255 255
-0.19150001 0.02079143 1.149 0 0 255 255
-0.18931143 0.02079143 1.149 0 0 255 255
-0.18777429 0.020863809 1.153 0 0 255 255
-0.18686572 0.021008572 1.161 0 0 255 255
-0.18592668 0.021153333 1.169 0 0 255 255
-0.18432859 0.021225717 1.1730001 0 0 255 255
-0.18209431 0.021225717 1.1730001 0 0 255 255
-0.18108669 0.021370478 1.1810001 0 0 255 255
-0.17944287 0.021442859 1.1850001 0 0 255 255
-0.17718573 0.021442859 1.1850001 0 0 255 255
-0.17492858 0.021442859 1.1850001 0 0 255 255
-0.17267144 0.021442859 1.1850001 0 0 255 255
-0.1704143 0.021442859 1.1850001 0 0 255 255
-0.16815715 0.021442859 1.1850001 0 0 255 255
-0.16590001 0.021442859 1.1850001 0 0 255 255
-0.16364287 0.021442859 1.1850001 0 0 255 255
-0.16138572 0.021442859 1.1850001 0 0 255 255
-0.15912858 0.021442859 1.1850001 0 0 255 255
-0.15687144 0.021442859 1.1850001 0 0 255 255
-0.15461428 0.021442859 1.1850001 0 0 255 255
-0.15235715 0.021442859 1.1850001 0 0 255 255
-0.15010001 0.021442859 1.1850001 0 0 255 255
-0.14784285 0.021442859 1.1850001 0 0 255 255
-0.14558572 0.021442859 1.1850001 0 0 255 255
-0.14332858 0.021442859 1.1850001 0 0 255 255
-0.14059526 0.021370478 1.1810001 0 0 255 255
-0.13834573 0.021370478 1.1810001 0 0 255 255
-0.13655715 0.021442859 1.1850001 0 0 255 255
-0.13475333 0.021515237 1.189 0 0 255 255
-0.20450477 0.0218 1.09 0 0 255 255
-0.20242858 0.0218 1.09 0 0 255 255
-0.20035239 0.0218 1.09 0 0 255 255
-0.19900383 0.021880003 1.0940001 0 0 255 255
-0.19746001 0.02194 1.097 0 0 255 255
-0.19537048 0.02194 1.097 0 0 255 255
-0.19328095 0.02194 1.097 0 0 255 255
-0.19119143 0.02194 1.097 0 0 255 255
-0.19616953 0.02276 1.138 0 0 255 255
-0.1940019 0.02276 1.138 0 0 255 255
-0.19183429 0.02276 1.138 0 0 255 255
-0.19150001 0.022980001 1.149 0 0 255 255
-0.18997046 0.02306 1.153 0 0 255 255
-0.18777429 0.02306 1.153 0 0 255 255
-0.18686572 0.023220001 1.161 0 0 255 255
-0.18656288 0.023460001 1.1730001 0 0 255 255
-0.18432859 0.023460001 1.1730001 0 0 255 255
-0.18271525 0.023540001 1.177 0 0 255 255
-0.18108669 0.023620002 1.1810001 0 0 255 255
-0.17944287 0.023700003 1.1850001 0 0 255 255
-0.17718573 0.023700003 1.1850001 0 0 255 255
-0.17492858 0.023700003 1.1850001 0 0 255 255
-0.17267144 0.023700003 1.1850001 0 0 255 255
-0.1704143 0.023700003 1.1850001 0 0 255 255
-0.16815715 0.023700003 1.1850001 0 0 255 255
-0.16590001 0.023700003 1.1850001 0 0 255 255
-0.16364287 0.023700003 1.1850001 0 0 255 255
-0.16138572 0.023700003 1.1850001 0 0 255 255
-0.15912858 0.023700003 1.1850001 0 0 255 255
-0.15687144 0.023700003 1.1850001 0 0 255 255
-0.15461428 0.023700003 1.1850001 0 0 255 255
-0.15235715 0.023700003 1.1850001 0 0 255 255
-0.15010001 0.023700003 1.1850001 0 0 255 255
-0.14784285 0.023700003 1.1850001 0 0 255 255
-0.14558572 0.023700003 1.1850001 0 0 255 255
-0.14284478 0.023620002 1.1810001 0 0 255 255
-0.14059526 0.023620002 1.1810001 0 0 255 255
-0.13834573 0.023620002 1.1810001 0 0 255 255
-0.13655715 0.023700003 1.1850001 0 0 255 255
-0.13475333 0.023779999 1.189 0 0 255 255
-0.20450477 0.023876192 1.09 0 0 255 255
-0.20242858 0.023876192 1.09 0 0 255 255
-0.20035239 0.023876192 1.09 0 0 255 255
-0.19900383 0.023963811 1.0940001 0 0 255 255
-0.19692002 0.023963811 1.0940001 0 0 255 255
-0.19537048 0.024029525 1.097 0 0 255 255
-0.19328095 0.024029525 1.097 0 0 255 255
-0.19188859 0.024117144 1.1010001 0 0 255 255
-0.18979143 0.024117144 1.1010001 0 0 255 255
-0.19655904 0.025256189 1.153 0 0 255 255
-0.19436285 0.025256189 1.153 0 0 255 255
-0.19216666 0.025256189 1.153 0 0 255 255
-0.19062953 0.025343811 1.1570001 0 0 255 255
-0.18907715 0.02543143 1.161 0 0 255 255
-0.18815334 0.025606668 1.169 0 0 255 255
-0.18656288 0.025694286 1.1730001 0 0 255 255
-0.18495715 0.025781905 1.177 0 0 255 255
-0.18271525 0.025781905 1.177 0 0 255 255
-0.18108669 0.025869526 1.1810001 0 0 255 255
-0.17944287 0.025957143 1.1850001 0 0 255 255
-0.17718573 0.025957143 1.1850001 0 0 255 255
-0.17492858 0.025957143 1.1850001 0 0 255 255
-0.17267144 0.025957143 1.1850001 0 0 255 255
-0.1704143 0.025957143 1.1850001 0 0 255 255
-0.16815715 0.025957143 1.1850001 0 0 255 255
-0.16590001 0.025957143 1.1850001 0 0 255 255
-0.16364287 0.025957143 1.1850001 0 0 255 255
-0.16138572 0.025957143 1.1850001 0 0 255 255
-0.15912858 0.025957143 1.1850001 0 0 255 255
-0.15687144 0.025957143 1.1850001 0 0 255 255
-0.15461428 0.025957143 1.1850001 0 0 255 255
-0.15235715 0.025957143 1.1850001 0 0 255 255
-0.15010001 0.025957143 1.1850001 0 0 255 255
-0.14734381 0.025869526 1.1810001 0 0 255 255
-0.14509429 0.025869526 1.1810001 0 0 255 255
-0.14284478 0.025869526 1.1810001 0 0 255 255
-0.14059526 0.025869526 1.1810001 0 0 255 255
-0.13834573 0.025869526 1.1810001 0 0 255 255
-0.13609621 0.025869526 1.1810001 0 0 255 255
-0.13430001 0.025957143 1.1850001 0 0 255 255
-0.20242858 0.02595238 1.09 0 0 255 255
-0.20035239 0.02595238 1.09 0 0 255 255
-0.19827619 0.02595238 1.09 0 0 255 255
-0.19692002 0.026047621 1.0940001 0 0 255 255
-0.1948362 0.026047621 1.0940001 0 0 255 255
-0.19275239 0.026047621 1.0940001 0 0 255 255
-0.19066858 0.026047621 1.0940001 0 0 255 255
-0.18858477 0.026047621 1.0940001 0 0 255 255
-0.18650097 0.026047621 1.0940001 0 0 255 255
-0.19571143 0.027642857 1.161 0 0 255 255
-0.1935 0.027642857 1.161 0 0 255 255
-0.19128856 0.027642857 1.161 0 0 255 255
-0.18972859 0.027738096 1.1650001 0 0 255 255
-0.18815334 0.027833333 1.169 0 0 255 255
-0.18656288 0.027928574 1.1730001 0 0 255 255
-0.18495715 0.028023811 1.177 0 0 255 255
-0.18333621 0.02811905 1.1810001 0 0 255 255
-0.18108669 0.02811905 1.1810001 0 0 255 255
-0.17944287 0.028214287 1.1850001 0 0 255 255
-0.17718573 0.028214287 1.1850001 0 0 255 255
-0.17492858 0.028214287 1.1850001 0 0 255 255
-0.17267144 0.028214287 1.1850001 0 0 255 255
-0.1704143 0.028214287 1.1850001 0 0 255 255
-0.16815715 0.028214287 1.1850001 0 0 255 255
-0.16590001 0.028214287 1.1850001 0 0 255 255
-0.16364287 0.028214287 1.1850001 0 0 255 255
-0.16138572 0.028214287 1.1850001 0 0 255 255
-0.15912858 0.028214287 1.1850001 0 0 255 255
-0.15687144 0.028214287 1.1850001 0 0 255 255
-0.15461428 0.028214287 1.1850001 0 0 255 255
-0.15235715 0.028214287 1.1850001 0 0 255 255
-0.15010001 0.028214287 1.1850001 0 0 255 255
-0.14734381 0.02811905 1.1810001 0 0 255 255
-0.14509429 0.02811905 1.1810001 0 0 255 255
-0.14284478 0.02811905 1.1810001 0 0 255 255
-0.14059526 0.02811905 1.1810001 0 0 255 255
-0.13834573 0.02811905 1.1810001 0 0 255 255
-0.13609621 0.02811905 1.1810001 0 0 255 255
-0.13430001 0.028214287 1.1850001 0 0 255 255
-0.20242858 0.028028572 1.09 0 0 255 255
-0.20035239 0.028028572 1.09 0 0 255 255
-0.19827619 0.028028572 1.09 0 0 255 255
-0.19620001 0.028028572 1.09 0 0 255 255
-0.1941238 0.028028572 1.09 0 0 255 255
-0.19275239 0.028131431 1.0940001 0 0 255 255
-0.19066858 0.028131431 1.0940001 0 0 255 255
-0.18858477 0.028131431 1.0940001 0 0 255 255
-0.18650097 0.028131431 1.0940001 0 0 255 255
-0.19571143 0.029854285 1.161 0 0 255 255
-0.1935 0.029854285 1.161 0 0 255 255
-0.19128856 0.029854285 1.161 0 0 255 255
-0.18972859 0.029957144 1.1650001 0 0 255 255
-0.18879716 0.03016286 1.1730001 0 0 255 255
-0.18719906 0.030265715 1.177 0 0 255 255
-0.18495715 0.030265715 1.177 0 0 255 255
-0.18333621 0.030368574 1.1810001 0 0 255 255
-0.18108669 0.030368574 1.1810001 0 0 255 255
-0.17883717 0.030368574 1.1810001 0 0 255 255
-0.17658764 0.030368574 1.1810001 0 0 255 255
-0.17492858 0.030471429 1.1850001 0 0 255 255
-0.17267144 0.030471429 1.1850001 0 0 255 255
-0.1704143 0.030471429 1.1850001 0 0 255 255
-0.16815715 0.030471429 1.1850001 0 0 255 255
-0.16590001 0.030471429 1.1850001 0 0 255 255
-0.16364287 0.030471429 1.1850001 0 0 255 255
-0.16138572 0.030471429 1.1850001 0 0 255 255
-0.15912858 0.030471429 1.1850001 0 0 255 255
-0.15687144 0.030471429 1.1850001 0 0 255 255
-0.15461428 0.030471429 1.1850001 0 0 255 255
-0.15235715 0.030471429 1.1850001 0 0 255 255
-0.15010001 0.030471429 1.1850001 0 0 255 255
-0.14734381 0.030368574 1.1810001 0 0 255 255
-0.14509429 0.030368574 1.1810001 0 0 255 255
-0.14284478 0.030368574 1.1810001 0 0 255 255
-0.14059526 0.030368574 1.1810001 0 0 255 255
-0.13881429 0.030471429 1.1850001 0 0 255 255
-0.13655715 0.030471429 1.1850001 0 0 255 255
-0.20035239 0.030104762 1.09 0 0 255 255
-0.19827619 0.030104762 1.09 0 0 255 255
-0.19620001 0.030104762 1.09 0 0 255 255
-0.1941238 0.030104762 1.09 0 0 255 255
-0.19275239 0.030215241 1.0940001 0 0 255 255
-0.19066858 0.030215241 1.0940001 0 0 255 255
-0.18858477 0.030215241 1.0940001 0 0 255 255
-0.18650097 0.030215241 1.0940001 0 0 255 255
-0.19706 0.032286666 1.169 0 0 255 255
-0.19483334 0.032286666 1.169 0 0 255 255
-0.19260666 0.032286666 1.169 0 0 255 255
-0.19038001 0.032286666 1.169 0 0 255 255
-0.18879716 0.032397144 1.1730001 0 0 255 255
-0.18719906 0.032507621 1.177 0 0 255 255
-0.18495715 0.032507621 1.177 0 0 255 255
-0.18333621 0.032618098 1.1810001 0 0 255 255
-0.18108669 0.032618098 1.1810001 0 0 255 255
-0.17883717 0.032618098 1.1810001 0 0 255 255
-0.17658764 0.032618098 1.1810001 0 0 255 255
-0.17433812 0.032618098 1.1810001 0 0 255 255
-0.17208859 0.032618098 1.1810001 0 0 255 255
-0.1704143 0.032728571 1.1850001 0 0 255 255
-0.16815715 0.032728571 1.1850001 0 0 255 255
-0.16590001 0.032728571 1.1850001 0 0 255 255
-0.16364287 0.032728571 1.1850001 0 0 255 255
-0.16138572 0.032728571 1.1850001 0 0 255 255
-0.15912858 0.032728571 1.1850001 0 0 255 255
-0.15687144 0.032728571 1.1850001 0 0 255 255
-0.15461428 0.032728571 1.1850001 0 0 255 255
-0.15235715 0.032728571 1.1850001 0 0 255 255
-0.15010001 0.032728571 1.1850001 0 0 255 255
-0.14784285 0.032728571 1.1850001 0 0 255 255
-0.14558572 0.032728571 1.1850001 0 0 255 255
-0.14332858 0.032728571 1.1850001 0 0 255 255
-0.14107144 0.032728571 1.1850001 0 0 255 255
-0.13881429 0.032728571 1.1850001 0 0 255 255
-0.13655715 0.032728571 1.1850001 0 0 255 255
-0.20108762 0.032299049 1.0940001 0 0 255 255
-0.19900383 0.032299049 1.0940001 0 0 255 255
-0.19620001 0.032180954 1.09 0 0 255 255
-0.1941238 0.032180954 1.09 0 0 255 255
-0.19204763 0.032180954 1.09 0 0 255 255
-0.18997143 0.032180954 1.09 0 0 255 255
-0.18858477 0.032299049 1.0940001 0 0 255 255
-0.19616666 0.034749523 1.177 0 0 255 255
-0.19326572 0.034631431 1.1730001 0 0 255 255
-0.19103144 0.034631431 1.1730001 0 0 255 255
-0.18879716 0.034631431 1.1730001 0 0 255 255
-0.18719906 0.034749523 1.177 0 0 255 255
-0.18558574 0.034867622 1.1810001 0 0 255 255
-0.18333621 0.034867622 1.1810001 0 0 255 255
-0.18108669 0.034867622 1.1810001 0 0 255 255
-0.17883717 0.034867622 1.1810001 0 0 255 255
-0.17658764 0.034867622 1.1810001 0 0 255 255
-0.17433812 0.034867622 1.1810001 0 0 255 255
-0.17208859 0.034867622 1.1810001 0 0 255 255
-0.1704143 0.034985714 1.1850001 0 0 255 255
-0.16815715 0.034985714 1.1850001 0 0 255 255
-0.16590001 0.034985714 1.1850001 0 0 255 255
-0.16364287 0.034985714 1.1850001 0 0 255 255
-0.16138572 0.034985714 1.1850001 0 0 255 255
-0.15912858 0.034985714 1.1850001 0 0 255 255
-0.15687144 0.034985714 1.1850001 0 0 255 255
-0.15461428 0.034985714 1.1850001 0 0 255 255
-0.15235715 0.034985714 1.1850001 0 0 255 255
-0.15010001 0.034985714 1.1850001 0 0 255 255
-0.14784285 0.034985714 1.1850001 0 0 255 255
-0.14558572 0.034985714 1.1850001 0 0 255 255
-0.14332858 0.034985714 1.1850001 0 0 255 255
-0.14107144 0.034985714 1.1850001 0 0 255 255
-0.13928285 0.035103809 1.189 0 0 255 255
-0.13794 0.03534 1.197 0 0 255 255
-0.20108762 0.034382861 1.0940001 0 0 255 255
-0.19900383 0.034382861 1.0940001 0 0 255 255
-0.19566001 0.03416286 1.087 0 0 255 255
-0.19358952 0.03416286 1.087 0 0 255 255
-0.19151905 0.03416286 1.087 0 0 255 255
-0.18944858 0.03416286 1.087 0 0 255 255
-0.18789524 0.034257144 1.09 0 0 255 255
-0.19326572 0.036865719 1.1730001 0 0 255 255
-0.19103144 0.036865719 1.1730001 0 0 255 255
-0.18879716 0.036865719 1.1730001 0 0 255 255
-0.18719906 0.036991432 1.177 0 0 255 255
-0.18558574 0.037117146 1.1810001 0 0 255 255
-0.18333621 0.037117146 1.1810001 0 0 255 255
-0.18108669 0.037117146 1.1810001 0 0 255 255
-0.17883717 0.037117146 1.1810001 0 0 255 255
-0.17658764 0.037117146 1.1810001 0 0 255 255
-0.17433812 0.037117146 1.1810001 0 0 255 255
-0.17208859 0.037117146 1.1810001 0 0 255 255
-0.16983907 0.037117146 1.1810001 0 0 255 255
-0.16815715 0.03724286 1.1850001 0 0 255 255
-0.16590001 0.03724286 1.1850001 0 0 255 255
-0.16364287 0.03724286 1.1850001 0 0 255 255
-0.16138572 0.03724286 1.1850001 0 0 255 255
-0.15912858 0.03724286 1.1850001 0 0 255 255
-0.15687144 0.03724286 1.1850001 0 0 255 255
-0.15461428 0.03724286 1.1850001 0 0 255 255
-0.15235715 0.03724286 1.1850001 0 0 255 255
-0.15010001 0.03724286 1.1850001 0 0 255 255
-0.14784285 0.03724286 1.1850001 0 0 255 255
-0.14558572 0.03724286 1.1850001 0 0 255 255
-0.14332858 0.03724286 1.1850001 0 0 255 255
-0.14154762 0.03736857 1.189 0 0 255 255
-0.13975143 0.037494287 1.1930001 0 0 255 255
-0.13794 0.037620001 1.197 0 0 255 255
-0.19566001 0.036233336 1.087 0 0 255 255
-0.19305526 0.036133334 1.0840001 0 0 255 255
-0.19099049 0.036133334 1.0840001 0 0 255 255
-0.18892573 0.036133334 1.0840001 0 0 255 255
-0.18737811 0.036233336 1.087 0 0 255 255
-0.18944097 0.039233334 1.177 0 0 255 255
-0.18719906 0.039233334 1.177 0 0 255 255
-0.18495715 0.039233334 1.177 0 0 255 255
-0.18271525 0.039233334 1.177 0 0 255 255
-0.18047334 0.039233334 1.177 0 0 255 255
-0.17883717 0.03936667 1.1810001 0 0 255 255
-0.17658764 0.03936667 1.1810001 0 0 255 255
-0.17433812 0.03936667 1.1810001 0 0 255 255
-0.17208859 0.03936667 1.1810001 0 0 255 255
-0.16983907 0.03936667 1.1810001 0 0 255 255
-0.16758953 0.03936667 1.1810001 0 0 255 255
-0.16590001 0.039500002 1.1850001 0 0 255 255
-0.16364287 0.039500002 1.1850001 0 0 255 255
-0.16138572 0.039500002 1.1850001 0 0 255 255
-0.15912858 0.039500002 1.1850001 0 0 255 255
-0.15687144 0.039500002 1.1850001 0 0 255 255
-0.15461428 0.039500002 1.1850001 0 0 255 255
-0.15235715 0.039500002 1.1850001 0 0 255 255
-0.15010001 0.039500002 1.1850001 0 0 255 255
-0.14784285 0.039500002 1.1850001 0 0 255 255
-0.14558572 0.039500002 1.1850001 0 0 255 255
-0.14332858 0.039500002 1.1850001 0 0 255 255
-0.14202382 0.039766666 1.1930001 0 0 255 255
-0.13975143 0.039766666 1.1930001 0 0 255 255
-0.19305526 0.038198099 1.0840001 0 0 255 255
-0.19099049 0.038198099 1.0840001 0 0 255 255
-0.18892573 0.038198099 1.0840001 0 0 255 255
-0.18737811 0.038303811 1.087 0 0 255 255
-0.18719906 0.04147524 1.177 0 0 255 255
-0.18495715 0.04147524 1.177 0 0 255 255
-0.18271525 0.04147524 1.177 0 0 255 255
-0.18047334 0.04147524 1.177 0 0 255 255
-0.17883717 0.041616194 1.1810001 0 0 255 255
-0.17658764 0.041616194 1.1810001 0 0 255 255
-0.17433812 0.041616194 1.1810001 0 0 255 255
-0.17208859 0.041616194 1.1810001 0 0 255 255
-0.16983907 0.041616194 1.1810001 0 0 255 255
-0.16758953 0.041616194 1.1810001 0 0 255 255
-0.16534001 0.041616194 1.1810001 0 0 255 255
-0.16364287 0.041757144 1.1850001 0 0 255 255
-0.16138572 0.041757144 1.1850001 0 0 255 255
-0.15912858 0.041757144 1.1850001 0 0 255 255
-0.15687144 0.041757144 1.1850001 0 0 255 255
-0.15461428 0.041757144 1.1850001 0 0 255 255
-0.15235715 0.041757144 1.1850001 0 0 255 255
-0.15010001 0.041757144 1.1850001 0 0 255 255
-0.14784285 0.041757144 1.1850001 0 0 255 255
-0.14558572 0.041757144 1.1850001 0 0 255 255
-0.14381239 0.041898094 1.189 0 0 255 255
-0.19305526 0.040262863 1.0840001 0 0 255 255
-0.19099049 0.040262863 1.0840001 0 0 255 255
-0.18892573 0.040262863 1.0840001 0 0 255 255
-0.18495715 0.043717142 1.177 0 0 255 255
-0.18271525 0.043717142 1.177 0 0 255 255
-0.18047334 0.043717142 1.177 0 0 255 255
-0.17883717 0.043865718 1.1810001 0 0 255 255
-0.17658764 0.043865718 1.1810001 0 0 255 255
-0.17433812 0.043865718 1.1810001 0 0 255 255
-0.17208859 0.043865718 1.1810001 0 0 255 255
-0.16983907 0.043865718 1.1810001 0 0 255 255
-0.16758953 0.043865718 1.1810001 0 0 255 255
-0.16534001 0.043865718 1.1810001 0 0 255 255
-0.16309048 0.043865718 1.1810001 0 0 255 255
-0.16084096 0.043865718 1.1810001 0 0 255 255
-0.15912858 0.04401429 1.1850001 0 0 255 255
-0.15687144 0.04401429 1.1850001 0 0 255 255
-0.15461428 0.04401429 1.1850001 0 0 255 255
-0.15235715 0.04401429 1.1850001 0 0 255 255
-0.15010001 0.04401429 1.1850001 0 0 255 255
-0.14784285 0.04401429 1.1850001 0 0 255 255
-0.14558572 0.04401429 1.1850001 0 0 255 255
-0.14381239 0.044162858 1.189 0 0 255 255
-0.1425 0.044460002 1.197 0 0 255 255
-0.18495715 0.045959052 1.177 0 0 255 255
-0.18271525 0.045959052 1.177 0 0 255 255
-0.18047334 0.045959052 1.177 0 0 255 255
-0.17883717 0.046115242 1.1810001 0 0 255 255
-0.17658764 0.046115242 1.1810001 0 0 255 255
-0.17433812 0.046115242 1.1810001 0 0 255 255
-0.17208859 0.046115242 1.1810001 0 0 255 255
-0.16983907 0.046115242 1.1810001 0 0 255 255
-0.16758953 0.046115242 1.1810001 0 0 255 255
-0.16534001 0.046115242 1.1810001 0 0 255 255
-0.16309048 0.046115242 1.1810001 0 0 255 255
-0.16084096 0.046115242 1.1810001 0 0 255 255
-0.15912858 0.046271432 1.1850001 0 0 255 255
-0.15687144 0.046271432 1.1850001 0 0 255 255
-0.15461428 0.046271432 1.1850001 0 0 255 255
-0.15235715 0.046271432 1.1850001 0 0 255 255
-0.15010001 0.046271432 1.1850001 0 0 255 255
-0.14784285 0.046271432 1.1850001 0 0 255 255
-0.14607714 0.046427619 1.189 0 0 255 255
-0.14478 0.046739999 1.197 0 0 255 255
-0.1425 0.046739999 1.197 0 0 255 255
-0.18558574 0.048364766 1.1810001 0 0 255 255
-0.18271525 0.048200954 1.177 0 0 255 255
-0.18047334 0.048200954 1.177 0 0 255 255
-0.17883717 0.048364766 1.1810001 0 0 255 255
-0.17658764 0.048364766 1.1810001 0 0 255 255
-0.17433812 0.048364766 1.1810001 0 0 255 255
-0.17208859 0.048364766 1.1810001 0 0 255 255
-0.16983907 0.048364766 1.1810001 0 0 255 255
-0.16758953 0.048364766 1.1810001 0 0 255 255
