ply
format ascii 1.0
comment PCL generated
element vertex 1229
property float x
property float y
property float z
property uchar red
property uchar green
property uchar blue
element camera 0
property float view_px
property float view_py
property float view_pz
property float x_axisx
property float x_axisy
property float x_axisz
property float y_axisx
property float y_axisy
property float y_axisz
property float z_axisx
property float z_axisy
property float z_axisz
property float focal
property float scalex
property float scaley
property float centerx
property float centery
property int viewportx
property int viewporty
property float k1
property float k2
end_header
-3.0988979 79.015625 7.0337014 0 255 0
-3.8876731 62.544155 7.3305078 0 255 0
1.8136082 82.66394 11.657694 0 255 0
-4.8416262 61.196068 12.71796 0 255 0
-3.4214602 75.696617 6.8424444 0 255 0
1.2869527 70.500214 5.5118246 0 255 0
-5.6629467 69.579056 10.773521 0 255 0
-0.23617628 56.371891 15.166855 0 255 0
-2.3170004 43.037308 8.31987 0 255 0
4.9453115 67.239754 8.1594133 0 255 0
0.5614301 37.77618 10.102448 0 255 0
0.86005384 35.000088 10.424491 0 255 0
-3.1748719 41.761635 9.1493607 0 255 0
2.8302207 49.176277 10.398292 0 255 0
0.065750189 49.201195 8.1115665 0 255 0
2.0695739 54.913628 7.7704563 0 255 0
-3.5356743 80.639275 8.7985229 0 255 0
-4.3553319 66.215881 14.612973 0 255 0
-3.0452611 44.612633 9.5688906 0 255 0
1.9182874 46.41832 13.358976 0 255 0
3.6120131 73.161346 6.8367348 0 255 0
-3.3990223 52.737152 11.181789 0 255 0
-3.1469398 54.671684 8.9028749 0 255 0
1.7558006 80.590446 7.2055249 0 255 0
2.7285743 53.291901 8.8179007 0 255 0
4.3017621 75.058701 7.7125759 0 255 0
-2.1036196 48.153042 9.0637598 0 255 0
1.5944719 61.202164 15.903143 0 255 0
-5.6203351 66.332619 11.624358 0 255 0
-0.17479104 67.641228 16.707684 0 255 0
-0.32438666 75.905342 5.6280107 0 255 0
-0.75604421 10.552128 11.097031 155 100 1
3.4231594 59.750626 7.5195017 0 255 0
0.93095809 52.763084 7.7247796 0 255 0
-3.9967284 77.458557 7.458097 0 255 0
-4.7962193 60.58152 12.530951 0 255 0
3.5080457 53.5756 11.640444 0 255 0
-0.25899887 6.6584663 12.167221 255 0 0
-2.0052924 45.238064 8.444253 0 255 0
-0.13744703 37.660152 12.072034 0 255 0
-0.31122142 44.995468 7.720789 0 255 0
0.58326751 73.985565 16.460855 0 255 0
5.3902235 76.312935 10.857264 0 255 0
5.093883 78.475853 12.186981 0 255 0
-0.81252927 19.890728 10.606172 0 255 0
-4.3037915 66.9617 7.3279042 0 255 0
-0.52679831 32.127254 10.138109 0 255 0
0.09297508 80.366753 15.393428 0 255 0
4.2772794 57.312798 10.180508 0 255 0
-4.2076168 63.981552 14.554966 0 255 0
-2.6997099 50.053421 12.252761 0 255 0
-3.4104719 71.634689 15.431759 0 255 0
-2.3843875 48.708374 9.4173784 0 255 0
1.996511 68.692924 16.320406 0 255 0
2.5034516 51.199696 9.1501741 0 255 0
-4.8188882 59.699364 11.555086 0 255 0
-5.5436211 65.493301 10.181185 0 255 0
-2.0177703 77.249901 6.0716991 0 255 0
-0.5507884 78.2621 16.236822 0 255 0
1.9980143 58.915226 6.7697468 0 255 0
-4.9543295 76.97406 9.0386429 0 255 0
-5.3529773 63.339394 10.10827 0 255 0
0.28178304 39.375221 12.269037 255 255 255
-0.52447975 20.473108 11.763483 0 255 0
3.327415 81.260635 12.441135 0 255 0
1.4590648 58.095768 6.7302914 0 255 0
3.134764 43.830666 9.5144634 0 255 0
3.7799277 59.839771 14.095962 0 255 0
5.5524979 66.329216 9.8931046 0 255 0
1.6533048 62.241905 5.9826694 0 255 0
2.0565 45.803371 13.404294 0 255 0
-1.3155844 39.884121 9.3831224 0 255 0
5.1207199 62.977646 12.732116 0 255 0
-3.3780766 76.453918 15.177398 0 255 0
1.082917 42.554504 7.5782619 0 255 0
-1.8675715 52.271709 13.752426 0 255 0
1.2833781 57.500851 6.7952251 0 255 0
-5.3918705 73.741898 9.9379635 0 255 0
2.2327838 60.978085 15.593945 0 255 0
2.1693573 61.034943 6.399642 0 255 0
0.5166257 27.12204 10.186656 0 255 0
-4.2690773 76.169365 7.7555499 0 255 0
0.14825453 22.672132 11.936423 0 255 0
-2.6565342 81.356934 13.346276 0 255 0
-1.1941564 71.868935 5.5544376 0 255 0
1.4406537 41.71949 14.389483 0 255 0
-1.8259223 82.673904 10.631022 0 255 0
0.21277215 66.269638 5.3467236 0 255 0
-0.70942163 66.99189 16.630791 0 255 0
0.36001939 82.673904 10.964941 0 255 0
0.57716185 76.548515 5.6917133 48 255 48
2.6523621 51.994793 9.1174603 0 255 0
1.0513561 43.082394 14.423768 0 255 0
-0.74309784 51.184601 14.064116 0 255 0
-4.8641024 74.914635 8.5684233 0 255 0
3.4959064 41.802284 9.9096003 0 255 0
5.2873783 67.890518 8.9677229 0 255 0
0.13567777 77.685699 16.367466 0 255 0
-0.25123987 40.118855 13.699046 0 255 0
-2.5069499 47.204605 12.536345 0 255 0
4.6041822 58.677307 10.454742 0 255 0
0.7615397 15.176238 11.43964 0 255 0
-0.26654792 9.8043404 11.964923 255 0 0
2.5735102 40.956139 8.3591785 0 255 0
2.3436847 63.942192 6.045577 0 255 0
-0.97727621 40.222122 13.780964 0 255 0
-4.9395847 68.494621 13.890944 0 255 0
-0.69226933 40.836273 7.441371 0 255 0
-5.082221 73.465561 13.117376 0 255 0
3.2133398 52.107536 11.733216 0 255 0
1.2163382 49.934425 13.70775 0 255 0
-1.8954439 51.311077 13.520762 0 255 0
0.96480912 29.144243 11.274239 0 255 0
-5.3921523 64.102295 12.236341 0 255 0
1.9321942 55.338932 14.464233 0 255 0
4.4173889 78.824646 13.650312 0 255 0
3.8802617 61.302822 14.405963 0 255 0
-4.1074295 59.545101 8.4544334 0 255 0
-0.41434273 66.457825 5.3670278 0 255 0
-0.494378 62.3428 16.293839 0 255 0
-2.7464566 57.624218 7.5556388 0 255 0
1.1853489 59.408859 6.3407798 0 255 0
1.0033541 33.34557 11.267778 0 255 0
-3.3126445 53.250832 9.8816738 0 255 0
5.3033247 76.421471 10.236191 0 255 0
3.7451715 71.255226 15.193933 0 255 0
-2.0495348 72.095825 16.186302 0 255 0
0.37130514 35.835854 10.033489 0 255 0
5.5490923 69.174416 12.188612 0 255 0
4.1674299 56.620667 10.491596 0 255 0
-2.724582 50.841866 9.5790377 0 255 0
-0.15221046 57.539059 15.432161 0 255 0
0.4261747 28.75938 11.907316 0 255 0
-4.5384612 58.231152 11.36757 0 255 0
2.4119914 50.249168 12.787724 0 255 0
-4.1331224 65.196365 14.809589 0 255 0
2.3138833 57.713303 7.1994534 0 255 0
-4.7102556 65.535515 7.9429188 0 255 0
3.9882908 65.055099 14.985456 0 255 0
0.45088294 53.011124 14.432696 0 255 0
-5.0464001 61.370609 12.158865 0 255 0
3.8657591 65.367294 6.9256735 0 255 0
-2.6252141 80.458214 7.6243391 0 255 0
-3.0372076 45.661812 10.049453 0 255 0
3.0421128 42.250603 9.0406647 0 255 0
-3.6043944 78.476631 7.2231817 0 255 0
-0.62406695 41.39217 14.661846 0 255 0
-3.1910772 65.347488 15.621941 0 255 0
4.781827 59.87384 9.9477396 0 255 0
4.6893945 72.147247 14.03652 0 255 0
-5.5201435 68.773949 9.5575113 0 255 0
1.5444133 48.866585 13.450495 0 255 0
-1.4588614 54.110355 14.38032 0 255 0
0.081943214 63.648708 16.509886 0 255 0
-0.23505722 10.455674 11.891486 104 150 0
5.5238514 72.615181 11.504438 0 255 0
0.96175981 34.42844 11.40411 0 255 0
1.3314518 51.62011 8.1092424 0 255 0
-4.3467445 78.666077 8.2122192 0 255 0
0.53205943 77.207413 16.331806 0 255 0
0.96815884 64.002197 5.6007857 0 255 0
-0.97757673 38.378925 11.455361 0 255 0
1.5708965 80.046196 15.300621 0 255 0
1.9313812 51.169754 8.5693598 0 255 0
-4.9522085 67.651985 8.1647387 0 255 0
2.6651406 59.389599 7.0285687 0 255 0
0.77336228 46.229771 14.003838 0 255 0
3.0008509 75.328995 15.533358 0 255 0
-5.7098341 67.287544 11.003084 0 255 0
2.7681613 67.052238 15.995709 0 255 0
2.6838601 71.085625 6.064352 0 255 0
2.7360318 47.516853 10.077676 0 255 0
-0.55533761 82.673904 10.950024 0 255 0
5.6683297 70.404655 11.082277 0 255 0
-2.5663919 58.220345 7.258173 0 255 0
-0.15344526 31.537704 12.015857 0 255 0
-0.48394468 36.329021 11.955806 0 255 0
-5.5153599 70.335846 9.7759275 0 255 0
-3.104157 53.848537 9.1241894 0 255 0
-2.5720191 45.63023 12.890195 0 255 0
4.2687502 79.541176 8.7006788 0 255 0
-0.36328 52.49971 7.6871886 0 255 0
-1.2807716 80.395432 15.175143 0 255 0
4.9017863 78.643845 9.3639345 0 255 0
5.5989952 69.769485 11.712512 0 255 0
3.3470936 80.00528 7.8483772 0 255 0
3.1211083 78.590073 15.142852 0 255 0
-0.41398293 79.102829 16.019062 0 255 0
2.9870286 52.248619 12.438232 0 255 0
-2.6072254 51.730614 12.897646 0 255 0
-0.81312048 82.673904 12.217251 0 255 0
-3.2737305 44.967102 10.509443 0 255 0
0.94643521 61.752014 16.145361 0 255 0
0.98672897 29.95892 11.163642 0 255 0
5.4768386 72.701256 10.201405 0 255 0
-0.086470902 28.184196 11.994467 0 255 0
-0.49550253 26.147415 10.181479 0 255 0
-2.9053676 51.566212 12.325718 0 255 0
0.9073633 21.096592 11.157688 0 255 0
-2.5824859 76.489021 6.2875009 0 255 0
2.9946358 51.957722 9.7437782 0 255 0
5.2161045 70.024185 13.152107 0 255 0
1.7497756 66.422234 5.6205554 0 255 0
5.4885464 63.724518 11.201654 0 255 0
0.63265526 40.491318 14.334443 0 255 0
1.2977474 46.738251 13.700895 0 255 0
-0.10885613 25.28648 10.066036 0 255 0
5.5595942 72.682281 10.823012 0 255 0
-2.750705 50.240486 9.8401623 0 255 0
2.1324935 59.54808 6.6835155 0 255 0
-4.19238 58.747292 8.9793615 0 255 0
3.3974085 53.623123 9.8914194 0 255 0
4.4881229 73.25972 7.8143439 0 255 0
-1.5149837 62.845543 16.203407 0 255 0
-2.4007947 62.26099 15.742027 0 255 0
-5.4058957 72.504364 9.5945415 0 255 0
-3.6419857 65.486015 6.7456608 0 255 0
1.2256311 79.687187 6.3773117 0 255 0
-3.5012403 54.43697 12.317255 0 255 0
3.2459946 74.901413 6.6607971 0 255 0
-4.4217715 58.536854 9.6470976 0 255 0
-1.0779076 80.961555 14.782671 0 255 0
3.0844698 57.072914 7.9754181 0 255 0
-1.0906626 79.029457 15.95644 0 255 0
-5.3202882 77.063614 11.484941 0 255 0
-0.75094575 46.489155 13.955688 0 255 0
-1.8160542 41.402981 14.262915 0 255 0
0.096515208 43.152199 7.4596682 0 255 0
0.46358252 30.979584 10.118032 0 255 0
3.0881474 57.778507 7.7758112 0 255 0
0.31045416 40.908485 7.3676615 0 255 0
-2.1129096 46.151649 8.754837 0 255 0
2.6971924 60.311623 6.8318276 0 255 0
-2.9602456 50.35479 10.474241 0 255 0
1.1934888 75.733887 16.297005 0 255 0
-1.5944389 58.985962 15.444551 0 255 0
0.24603188 16.911121 11.867348 0 255 0
-0.89398056 22.025726 10.752993 0 255 0
4.9538822 76.063446 8.9259653 0 255 0
0.39900005 8.4382391 11.236834 255 0 0
-3.8972783 58.410191 13.464463 0 255 0
-1.948239 42.001423 14.113654 15 255 15
-1.3846512 49.962852 13.641914 0 255 0
5.2516689 74.921165 12.526431 0 255 0
5.4408202 75.321426 10.885347 0 255 0
4.902339 73.18203 13.587141 0 255 0
-4.098258 57.789749 12.757118 0 255 0
-5.2487154 75.903641 9.6353512 0 255 0
3.9547462 68.46312 6.9035463 0 255 0
5.0511222 66.327019 13.588978 0 255 0
2.7122831 52.605263 9.0214329 0 255 0
3.662987 72.866074 15.173317 0 255 0
-0.095087342 69.303139 16.703901 0 255 0
2.6793504 73.931953 6.1968956 0 255 0
4.1251578 76.885307 7.623147 0 255 0
2.4542098 43.722004 13.526135 0 255 0
-4.2027707 60.524288 8.2786331 0 255 0
0.58897889 20.120777 11.710035 0 255 0
2.7350893 56.380455 7.8856153 0 255 0
-3.4831614 67.021721 6.5541267 0 255 0
-1.4598362 57.371082 15.132699 0 255 0
-4.4659047 70.407669 7.5900669 0 255 0
5.4794645 64.478294 10.157003 0 255 0
-3.2151217 54.186329 12.87397 0 255 0
2.7007074 40.12167 11.154288 0 255 0
-3.5625234 55.114807 12.547548 0 255 0
-1.0729599 44.704063 14.200966 0 255 0
4.3996954 57.932766 10.084312 0 255 0
-5.4503865 75.368103 11.056563 0 255 0
-2.5625298 55.655018 7.9491158 0 255 0
-0.76012129 56.217335 6.967247 0 255 0
5.3669348 77.188721 10.871253 0 255 0
3.8896694 79.530441 13.888676 0 255 0
-3.4682314 44.086906 11.038781 0 255 0
3.448946 80.966263 9.1801844 0 255 0
0.48405695 22.568714 10.213196 0 255 0
-4.0574508 69.820969 14.994181 0 255 0
0.17253146 36.270798 12.055308 0 255 0
0.019402871 71.269508 16.655575 0 255 0
-0.001137867 3.6030829 11.728676 255 5 5
2.7821927 81.965279 10.260528 0 255 0
3.9578776 80.866425 10.6437 0 255 0
-1.9039562 52.972786 8.1422663 0 255 0
2.9149466 81.220085 8.8051834 0 255 0
-4.7298942 79.772713 10.831192 0 255 0
1.6072354 57.197472 15.031059 0 255 0
1.2281768 40.244469 13.729795 0 255 0
-2.1740718 81.372131 8.258358 0 255 0
0.23434488 29.943272 10.040442 0 255 0
-2.4234753 78.340759 6.3565478 0 255 0
0.36431259 7.9554358 11.748882 255 0 0
3.9209456 77.681847 7.3798032 0 255 0
3.5609431 78.383514 7.164731 0 255 0
-0.93736792 42.647217 14.514201 0 255 0
0.47670645 9.1380596 11.376561 255 0 0
5.2883348 77.309921 11.753048 0 255 0
-5.1956339 61.532997 10.820168 0 255 0
5.1061792 61.464287 11.81194 0 255 0
-4.9491267 64.442276 8.4848394 0 255 0
2.3392639 72.407585 16.052891 0 255 0
1.9014838 52.066345 13.681452 0 255 0
0.48759606 12.004063 10.332285 0 255 0
-0.87977648 39.821606 12.765734 0 255 0
-5.6065521 68.656769 11.836603 0 255 0
3.1631887 58.744171 14.451982 0 255 0
2.9846957 52.810104 12.71102 0 255 0
-1.9653111 61.347965 15.774871 0 255 0
1.7055459 62.408649 16.053873 0 255 0
0.51044971 11.328728 10.338913 0 255 0
-5.5546784 73.044586 11.112661 0 255 0
-2.7120812 66.620125 6.0170298 0 255 0
-3.6075401 68.313293 6.6334081 0 255 0
1.76582 43.791862 7.9913282 0 255 0
-5.3099599 74.695801 12.365421 0 255 0
2.0986943 54.563938 14.14464 0 255 0
-2.3620985 49.62093 9.308754 0 255 0
5.2843361 72.990242 12.688927 0 255 0
0.86877024 17.579929 11.211482 0 255 0
-0.35938999 77.719376 5.6962328 0 255 0
3.9409509 55.310177 11.107815 0 255 0
-1.985999 50.616695 13.321949 0 255 0
-2.3864985 73.320396 6.0438824 0 255 0
-1.3351318 82.673904 11.84833 0 255 0
2.5817852 46.347088 9.3838367 0 255 0
-2.5794322 64.307953 6.1018524 0 255 0
4.1350527 62.301754 7.7123423 0 255 0
-1.9922459 49.211185 13.127409 0 255 0
-3.209532 79.628166 7.4432869 0 255 0
0.0038374227 60.955502 5.8921785 0 255 0
-2.3064039 63.232246 15.920803 0 255 0
2.852725 40.280602 12.079724 0 255 0
4.5230441 59.868828 9.184783 0 255 0
-0.73410845 45.938606 7.9638233 0 255 0
5.4757738 65.034569 12.170413 0 255 0
-3.1615872 42.949524 12.68963 0 255 0
-4.419487 66.255905 7.4983025 0 255 0
0.31107357 46.75515 8.054553 0 255 0
0.076402187 76.573235 16.404366 0 255 0
2.5861139 66.196465 5.9776812 0 255 0
-4.9597182 77.738029 12.94163 0 255 0
0.79515183 17.835039 10.61186 0 255 0
-3.0978849 79.873032 14.512165 0 255 0
-1.3511804 40.937855 7.605896 0 255 0
5.6092992 71.035973 11.338619 0 255 0
4.1793847 79.088707 8.2159395 0 255 0
-2.7480028 69.28791 6.0359201 0 255 0
-5.504015 72.638145 11.646668 0 255 0
1.9395401 51.412609 13.509151 0 255 0
1.5397333 79.463783 15.645343 0 255 0
0.16676924 82.304993 8.5890446 0 255 0
-2.7982302 55.846306 13.953008 0 255 0
-3.2909274 44.969894 11.388097 0 255 0
2.3664997 71.694527 16.072268 0 255 0
-4.9829078 70.308846 13.699256 0 255 0
5.4770327 71.893982 9.9491653 0 255 0
1.1309729 42.354382 14.460333 0 255 0
-4.9316134 66.930984 8.1465979 0 255 0
1.0224262 67.170021 5.4399548 0 255 0
0.023169979 69.081512 5.313211 0 255 0
3.1177692 43.045113 9.2661572 0 255 0
-1.3792043 46.235371 8.2708817 0 255 0
-3.275245 64.166931 15.450318 0 255 0
1.8657641 74.839096 5.9068699 0 255 0
3.3966682 59.519535 14.475292 0 255 0
-4.2212343 65.455292 7.3129272 0 255 0
-2.2942352 47.971535 12.732323 0 255 0
-0.44314364 28.796799 10.130667 0 255 0
-4.2135172 73.414948 14.562649 0 255 0
5.1580606 73.575775 12.920478 0 255 0
0.32354701 35.64093 12.015778 0 255 0
-0.40888754 11.692538 11.756707 0 255 0
5.1859503 78.637535 11.174708 0 255 0
3.0823629 69.917175 15.75818 0 255 0
-2.7880564 48.761322 11.776406 0 255 0
3.1235788 45.746807 10.542664 0 255 0
3.033664 72.783707 15.661187 0 255 0
-4.5182085 60.201706 13.018803 0 255 0
2.9385762 71.644417 6.2379684 0 255 0
-2.7824686 67.65184 15.996229 0 255 0
3.1898279 80.545822 13.798309 0 255 0
3.7239828 67.752403 15.301558 0 255 0
4.6086936 76.318192 8.2096119 0 255 0
4.2607651 66.04763 7.3104391 0 255 0
1.7866902 60.458015 6.3564863 0 255 0
0.64045149 72.14962 16.538555 0 255 0
4.8010893 76.836266 8.6517982 0 255 0
0.58447927 20.977272 10.308201 0 255 0
-1.4870853 58.341812 15.344581 0 255 0
-1.9718161 64.491364 5.829421 0 255 0
5.1820588 76.995491 12.443317 0 255 0
-0.98215759 32.934044 11.32047 0 255 0
-1.4504256 64.136467 16.377674 0 255 0
-0.73880291 59.760731 15.819696 0 255 0
5.299212 66.053696 12.950392 0 255 0
0.56930268 40.1838 8.2315998 0 255 0
1.6627336 78.771805 15.873197 0 255 0
-1.8526076 74.0522 16.170647 0 255 0
4.7688704 63.285782 8.3655243 0 255 0
3.3183806 73.528687 15.397729 0 255 0
-1.7308033 71.522217 16.342987 0 255 0
0.21785107 5.8616681 10.987017 255 0 0
0.80099356 82.2146 8.5903664 0 255 0
1.8232763 39.771931 11.291163 0 255 0
0.52921569 11.544585 11.67233 0 255 0
2.2149448 69.36409 16.214464 0 255 0
-3.3428431 55.62442 13.207584 0 255 0
-1.8284013 60.441143 15.654096 0 255 0
3.8928883 62.994995 7.2355175 0 255 0
5.5860438 68.501358 12.017708 0 255 0
-4.3957243 61.171036 13.697372 0 255 0
-3.6093631 80.974335 12.445984 0 255 0
-3.8126769 67.717506 15.233063 0 255 0
-0.74852097 14.024805 10.586348 0 255 0
-2.7473128 54.363388 8.4897127 0 255 0
-3.22558 81.165985 12.905892 0 255 0
3.5013487 57.684139 13.729545 0 255 0
-0.064899296 41.660072 14.712605 0 255 0
-2.3135281 49.732677 12.80903 0 255 0
0.42766047 39.158653 9.9593592 255 255 255
1.3256723 39.416576 11.013831 255 255 255
-0.35940164 49.704346 8.1141644 0 255 0
3.791501 80.699028 12.596599 0 255 0
1.5325303 68.889359 5.5232706 0 255 0
1.7633247 50.140621 13.417114 0 255 0
-2.2722378 64.275093 16.052952 0 255 0
-3.5222921 66.221497 6.602366 0 255 0
5.4948869 65.489128 9.8127422 0 255 0
0.025914641 27.785379 10.032485 0 255 0
5.5382009 65.624298 11.947012 0 255 0
-1.0639602 38.840317 10.857728 255 255 255
-2.5176926 56.917549 7.5725417 0 255 0
5.3740482 66.52533 9.212368 0 255 0
-3.0851078 43.178276 9.2260103 0 255 0
4.0404921 78.751404 14.177139 0 255 0
4.3573732 62.059502 13.969749 0 255 0
-3.0937185 59.74173 7.2687836 0 255 0
-4.8843393 59.931778 10.644402 0 255 0
4.4303255 66.858627 14.536839 0 255 0
-3.6269183 54.179493 11.664311 0 255 0
-1.1093149 48.199398 13.645889 2 255 2
-0.83672267 20.013084 11.369586 0 255 0
-5.3399467 75.711151 11.772163 0 255 0
-0.11008654 73.503708 16.546438 0 255 0
-1.8478966 47.406631 8.7882414 0 255 0
-1.6806002 80.620956 7.1991758 0 255 0
4.7613831 79.725708 10.880326 0 255 0
-3.6579671 72.69136 6.8436179 0 255 0
2.3599086 45.234909 13.297289 0 255 0
0.61744046 14.364549 11.621685 0 255 0
-0.37013724 26.876919 11.912256 0 255 0
0.13521561 72.934998 5.4607258 0 255 0
3.2032461 45.536316 11.206396 0 255 0
-0.26272571 37.526348 9.9769411 0 255 0
-3.8196859 73.07988 15.040167 0 255 0
1.5492308 47.82037 13.447101 0 255 0
-0.27607453 62.739029 5.6489973 0 255 0
1.9243737 69.399727 5.6973381 0 255 0
1.8408437 40.314991 13.522525 0 255 0
5.3260813 74.036285 12.457188 0 255 0
0.020673271 7.7201371 9.8273764 255 0 0
-1.7918336 79.02916 15.729774 0 255 0
1.2822945 40.996487 14.487956 0 255 0
2.1127303 65.828888 5.8036795 0 255 0
1.23171 71.404625 16.490559 0 255 0
0.33401072 17.568134 11.837165 0 255 0
-2.7223649 61.643353 6.5587096 0 255 0
4.2099123 72.610703 14.630641 0 255 0
2.0640106 40.228973 8.9016724 0 255 0
5.1539297 72.189583 8.9355364 0 255 0
-0.85183907 57.466923 15.324336 0 255 0
-5.3227711 64.897675 9.3054762 0 255 0
-1.1215748 44.544262 7.8245478 0 255 0
-3.298048 64.557213 6.5470371 0 255 0
-0.79420829 65.227356 5.4816151 0 255 0
-2.3113699 55.296192 14.178529 0 255 0
-0.10086264 8.4325237 9.8572807 255 0 0
-0.53586245 9.404439 11.468294 255 0 0
0.11625838 51.886887 7.7619872 0 255 0
-2.3566825 42.94846 13.698568 0 255 0
0.17523697 9.2395735 9.9578457 255 0 0
-4.0958858 56.515076 10.122932 0 255 0
-0.45258844 45.303795 14.231369 0 255 0
-0.32158598 60.354317 6.0460205 0 255 0
0.14928295 5.1470509 11.338677 255 0 0
-0.4431448 13.561377 10.281977 0 255 0
-0.31461158 43.487789 14.517548 0 255 0
2.1480281 80.565628 14.674208 0 255 0
4.5180874 63.713081 14.104256 0 255 0
0.25081247 59.859211 6.1289487 0 255 0
-5.2975526 76.666252 10.280327 0 255 0
2.191802 67.960297 5.7871265 0 255 0
-4.9010897 72.674202 13.653738 0 255 0
0.84120691 15.143724 10.784748 0 255 0
2.8760853 45.840427 9.7529926 0 255 0
1.0692811 73.022346 5.5879188 0 255 0
-3.6147959 66.534912 15.370097 0 255 0
0.95454484 82.673904 11.253478 0 255 0
-0.65150112 39.976692 8.7672997 0 255 0
4.6115766 67.548744 7.7194438 0 255 0
-4.5734081 64.827042 7.8291683 0 255 0
2.1597517 53.030014 13.707564 0 255 0
-5.376668 73.458214 12.312964 0 255 0
-2.7427251 40.141045 11.194707 0 255 0
-3.3553271 81.125954 9.3265066 0 255 0
-2.8074408 81.493675 9.1086159 0 255 0
0.69908845 26.80587 11.696929 0 255 0
-3.5544467 60.301281 7.5013876 0 255 0
1.0304924 36.957596 11.295712 0 255 0
5.5974598 64.570534 11.048773 0 255 0
2.248594 53.661198 13.798754 0 255 0
-1.2286187 82.673904 10.910902 0 255 0
3.7997291 58.192207 13.517412 0 255 0
-1.4120927 54.062096 7.6423855 0 255 0
3.191906 66.313751 6.3423977 0 255 0
5.5336967 71.646881 11.72699 0 255 0
1.4013472 78.004906 5.8706613 66 255 66
-4.5683546 75.323746 8.08043 0 255 0
-5.5339146 66.178932 9.8158855 0 255 0
-5.5500546 64.933083 11.563006 0 255 0
2.9833937 64.52597 15.721572 0 255 0
-1.834708 55.547287 14.552768 0 255 0
2.8552561 51.226162 9.7392178 0 255 0
-4.2820807 64.222748 7.5319352 0 255 0
-2.6546609 53.18441 13.274699 0 255 0
-2.7090449 74.407654 6.2338629 0 255 0
3.3909945 43.840813 11.846352 0 255 0
2.6502752 82.1427 11.107632 0 255 0
-3.1166983 66.824516 15.755927 0 255 0
-5.2683048 67.040123 8.9437361 0 255 0
-3.5768881 64.873451 15.292725 0 255 0
-5.4940553 74.560104 11.014445 0 255 0
-3.0536962 51.63538 10.032622 0 255 0
0.5844726 79.938721 6.430778 0 255 0
-2.8848739 75.655197 6.4282594 0 255 0
3.1032422 51.362392 10.453441 0 255 0
1.2398065 55.656837 14.824502 0 255 0
-0.99882531 81.449341 14.317795 0 255 0
-2.4588547 77.107239 15.774292 0 255 0
-4.0742865 69.16935 14.995028 0 255 0
5.4208918 70.722832 12.603538 0 255 0
0.40904239 50.767479 7.9856186 0 255 0
5.3963351 72.436722 9.5464058 0 255 0
3.5986083 70.947937 6.7095633 0 255 0
4.6988335 65.579575 7.9240122 0 255 0
-4.558073 79.128227 13.089739 0 255 0
0.19657254 55.824852 15.053794 0 255 0
-0.3969118 9.1632204 12.02631 255 0 0
-1.0084575 73.184372 16.443594 0 255 0
-1.7089531 43.787945 7.9627371 0 255 0
4.396924 69.86274 7.4810314 0 255 0
0.41745704 32.610264 10.083257 0 255 0
1.4763949 63.315891 16.274071 0 255 0
-3.1995854 51.629337 10.830125 0 255 0
-2.1488526 76.558952 15.919888 0 255 0
-2.2429872 71.60746 5.90417 0 255 0
-1.3105427 63.482845 5.7006083 0 255 0
-3.4428382 43.496792 11.755602 0 255 0
-3.441139 43.616554 10.369155 0 255 0
5.1955938 72.945564 9.1225691 0 255 0
-5.5421991 69.555695 9.8525438 0 255 0
0.38705641 57.451153 6.6492629 0 255 0
0.88222957 16.786736 10.975557 0 255 0
-2.1455393 73.915611 5.9749365 0 255 0
3.8307872 71.866112 15.097656 0 255 0
-4.634109 77.389374 13.746202 0 255 0
3.8739347 76.694458 14.750276 0 255 0
-4.871263 78.529312 12.816681 0 255 0
-2.4426763 46.601665 12.753963 0 255 0
3.3831739 64.468689 6.6240187 0 255 0
-5.1067543 71.300545 13.301969 0 255 0
0.082341641 4.4493885 10.805898 255 0 0
-3.4551742 41.75259 9.8006887 0 255 0
4.1123037 57.619728 12.627254 0 255 0
-1.0353855 38.224716 10.718965 0 255 0
0.13358846 10.707293 10.139836 49 224 19
1.0358467 35.871094 10.84083 0 255 0
0.48102939 75.726761 16.39114 0 255 0
-5.3985567 74.812096 11.650028 0 255 0
-4.0743608 62.276714 14.391847 0 255 0
-5.5281916 68.089516 9.5623693 0 255 0
0.43607062 64.487801 16.551735 0 255 0
3.3673232 61.558064 7.0696521 0 255 0
2.6705978 57.608566 14.529654 61 255 61
0.49968582 29.033379 10.15206 0 255 0
-0.16175792 21.412045 10.108049 0 255 0
-2.7684886 45.945484 9.5467901 0 255 0
4.8995328 70.508026 8.1617336 89 255 89
-1.1082647 47.851711 8.3668098 0 255 0
-0.021693598 39.67762 9.3433704 0 255 0
5.639946 65.821228 10.77339 0 255 0
-4.4798203 72.654541 14.27544 0 255 0
4.9047065 59.801926 10.982834 0 255 0
-2.6603382 40.142044 10.272001 0 255 0
-3.2017546 61.937912 6.8711309 0 255 0
0.022689223 82.673897 9.9030685 0 255 0
-1.8456726 68.439995 5.6426234 0 255 0
-0.3779422 76.962341 5.6850605 0 255 0
-1.479671 40.268291 8.368515 0 255 0
3.6506667 54.23555 10.461649 0 255 0
5.4007382 63.746323 10.145165 0 255 0
4.0980558 67.33815 14.977683 0 255 0
0.20269722 54.674118 14.805165 0 255 0
0.46438739 33.092812 11.933237 0 255 0
2.1161237 73.931702 16.067743 0 255 0
-5.0056658 78.791595 12.206019 0 255 0
-3.3165088 80.558113 13.618458 0 255 0
4.8419657 69.831749 8.0599403 0 255 0
0.34648573 66.603928 16.674685 0 255 0
-2.2295535 42.384895 8.1834974 0 255 0
-3.3826208 78.635155 14.927829 0 255 0
-4.7763352 59.226643 10.890408 0 255 0
0.010176165 38.506199 9.9352255 0 255 0
-4.4292498 57.520119 10.991763 0 255 0
0.55310279 61.052597 16.084826 0 255 0
-2.7856045 69.601456 15.972623 0 255 0
-5.2457657 77.352219 9.9574156 0 255 0
5.2878385 77.962639 11.416972 0 255 0
2.9679418 53.636169 13.015075 0 255 0
-2.3481975 54.857948 7.9992418 0 255 0
-3.4255159 57.81105 13.873399 0 255 0
-0.1241236 11.341152 10.174065 0 255 0
-1.5301456 81.944618 8.554534 0 255 0
-3.0557265 56.498524 13.889634 0 255 0
4.6030226 78.806694 8.7654762 0 255 0
-0.65390456 38.050568 10.170448 0 255 0
3.5755897 66.371117 15.39813 0 255 0
0.5838306 16.717239 10.355309 0 255 0
0.50253886 48.911003 13.848234 0 255 0
5.576385 72.007812 10.738432 0 255 0
-4.4616113 57.99123 10.460827 0 255 0
-1.9891961 65.435959 16.255182 0 255 0
4.9682999 63.955055 13.367078 0 255 0
-0.44889757 54.265648 7.3451967 0 255 0
3.9056256 57.28458 9.094326 0 255 0
-4.1784158 76.854019 7.6901426 0 255 0
-3.5644968 72.030853 6.7376008 0 255 0
3.494076 65.370895 15.391079 0 255 0
-1.5799695 57.815155 6.8445768 0 255 0
1.0543456 79.151535 15.91579 0 255 0
-4.2906618 57.856998 9.7007523 0 255 0
-3.6060615 41.819973 10.418089 0 255 0
-0.94190347 51.99659 7.8771334 0 255 0
0.87214243 15.820251 10.963833 0 255 0
2.6908166 68.797554 6.0009332 0 255 0
2.6693122 70.415764 16.001816 0 255 0
-5.4103651 71.464439 12.551977 0 255 0
0.081693672 12.104546 11.851498 0 255 0
1.4960712 60.097221 15.72299 0 255 0
4.2831898 64.113785 7.5520868 0 255 0
2.4570935 81.874725 9.343215 0 255 0
3.1771636 44.806362 9.966362 0 255 0
-3.1396947 41.460693 12.982024 0 255 0
-4.4956894 74.706779 14.093248 0 255 0
2.5243514 56.889595 7.5852642 0 255 0
-2.9555016 50.317928 11.557664 0 255 0
5.4204774 73.760986 11.869044 0 255 0
-4.9050465 62.620537 8.9058275 0 255 0
-2.3151598 58.688522 15.079327 0 255 0
-5.1528811 77.224655 12.529547 0 255 0
3.5791013 42.691837 11.286587 0 255 0
4.6521339 78.236946 8.521059 0 255 0
-2.7895732 80.902695 13.844101 0 255 0
5.2377882 76.138123 12.394733 0 255 0
0.11231732 16.094662 10.149061 0 255 0
4.2514029 79.970604 9.249795 0 255 0
-4.583096 58.637516 10.357733 0 255 0
-0.55751854 76.377396 16.35029 0 255 0
-4.4041128 78.029449 8.0711489 0 255 0
-1.4519199 73.674751 5.6751413 0 255 0
-1.0419466 52.851376 7.7516084 0 255 0
-2.7927032 81.152435 8.5401096 0 255 0
-1.7976482 64.790604 16.29575 0 255 0
0.77184641 13.688061 10.650246 0 255 0
-3.5411506 81.352043 10.858956 0 255 0
0.45549202 39.757023 12.784072 0 255 0
-0.72753149 31.275043 10.305782 0 255 0
-2.8658307 61.037628 6.792191 0 255 0
0.25016212 47.611172 13.88928 0 255 0
1.6787136 64.323059 16.304228 0 255 0
-1.0193952 55.09108 7.2464981 0 255 0
-1.1832695 42.282719 7.5966482 0 255 0
4.0575118 77.383629 14.497711 0 255 0
0.9573797 24.663784 11.02275 0 255 0
-2.6514907 43.893105 13.252277 0 255 0
-2.7448378 42.295914 8.6591663 0 255 0
-2.5488887 40.669842 8.5267897 0 255 0
3.6927347 56.569874 8.983819 0 255 0
5.3023562 63.100075 12.115819 0 255 0
-0.47081745 32.067501 11.920753 0 255 0
-0.81342864 11.18393 11.092016 9 253 7
3.3101978 69.669937 6.4413528 0 255 0
2.7248855 77.792999 6.4077806 0 255 0
5.3408146 74.878075 9.9664326 0 255 0
-4.6790323 67.445206 14.222285 0 255 0
-0.18007788 79.61261 6.2025323 0 255 0
4.6877041 66.365326 14.193368 0 255 0
2.1039944 75.565323 15.98891 0 255 0
-0.79186642 25.365852 11.55477 0 255 0
-0.82174236 79.482651 6.2241397 0 255 0
-2.7452829 80.383614 14.380852 0 255 0
-2.4590256 60.714172 15.447468 0 255 0
-2.76774 42.630634 13.307417 0 255 0
-1.1494565 61.812187 16.127693 0 255 0
5.0809321 74.350769 13.009664 0 255 0
-4.58605 66.72068 14.331642 0 255 0
-1.8512733 54.847836 14.384253 0 255 0
5.3395319 67.19104 9.1117706 0 255 0
2.0203476 76.89415 15.9561 0 255 0
4.1755037 57.538216 9.602684 0 255 0
5.5392447 66.888153 12.293642 0 255 0
-0.96889943 26.075533 11.032406 0 255 0
1.4303384 45.918846 13.80494 0 255 0
-5.1717448 71.025009 8.8576765 0 255 0
1.1001291 56.799358 15.146228 0 255 0
-0.34735134 72.847214 16.546925 0 255 0
-2.7626541 81.969269 10.225811 0 255 0
-0.18341917 41.383251 7.3252621 0 255 0
-4.9355631 78.026024 9.1156836 0 255 0
-4.825922 75.017891 13.542427 0 255 0
3.5371151 74.30381 6.8482509 0 255 0
2.147963 66.789902 16.249779 0 255 0
-2.437386 75.294327 6.1667528 0 255 0
2.3909764 40.049248 10.219009 0 255 0
-5.3707776 62.677544 10.841436 0 255 0
2.2533746 49.278431 12.828581 0 255 0
-5.1219301 72.397606 8.8798695 0 255 0
-2.0307851 74.591629 5.9624577 0 255 0
-3.9322145 78.783165 7.7285299 0 255 0
0.25806844 45.607693 7.8352656 0 255 0
-4.4046516 59.513126 12.954051 0 255 0
-0.17116889 21.180458 11.919941 0 255 0
2.4840946 81.528809 13.283373 0 255 0
-2.9953153 52.679428 9.4146967 0 255 0
2.8404675 48.257771 10.740099 0 255 0
3.11378 53.327591 9.3613853 0 255 0
-4.6291552 62.319984 8.3570147 0 255 0
4.2287154 69.000908 14.799661 0 255 0
4.8575983 65.164116 13.862496 0 255 0
1.5351322 40.280903 8.3667583 0 255 0
-4.7890568 76.452682 13.455581 0 255 0
5.5872698 67.758842 11.995066 0 255 0
-0.67672479 38.702347 10.180935 0 255 0
4.3664079 71.75164 7.5480833 0 255 0
-2.0173471 50.868484 8.6936474 0 255 0
-0.20661065 46.379173 7.9810205 0 255 0
-1.2555431 62.354614 5.8358302 0 255 0
2.6383286 79.632431 7.007565 0 255 0
-2.0604644 40.581135 13.809902 0 255 0
3.3891273 60.548393 7.3076386 0 255 0
3.0519028 50.729477 10.808582 0 255 0
-2.7244234 57.187187 14.373635 0 255 0
2.9723022 41.831356 13.1492 0 255 0
-2.185394 81.371117 13.76557 0 255 0
5.4265471 64.372749 12.191702 0 255 0
-2.9459817 65.291504 6.2252054 0 255 0
-3.2418535 52.342052 11.828609 0 255 0
0.9985494 39.991482 13.168671 0 255 0
-5.2552724 67.678986 8.8957005 0 255 0
1.3849111 75.077385 16.30286 0 255 0
1.1396916 41.786388 7.5360088 0 255 0
0.25986582 59.226456 6.2570591 0 255 0
-1.4648761 67.99279 16.541361 0 255 0
3.3074231 52.947617 12.003868 0 255 0
-3.9283793 55.402397 10.677341 0 255 0
5.4239116 71.236389 9.4883976 2 255 2
1.5019965 82.475433 9.4031086 0 255 0
-4.6589708 78.758728 8.8634205 0 255 0
0.27517921 59.824383 15.892595 0 255 0
-1.7776326 62.966339 5.9215031 0 255 0
-2.0370286 39.880154 10.489212 0 255 0
1.029188 75.116623 5.6834908 0 255 0
1.9610101 79.266235 6.4684238 27 255 27
5.4727502 72.192368 12.023926 0 255 0
4.0258112 59.405998 8.3954096 0 255 0
-0.52417892 54.632702 14.753922 0 255 0
-1.7957294 44.464725 13.912182 0 255 0
-0.65464729 58.091736 15.485126 0 255 0
1.560469 72.046959 5.6403546 0 255 0
2.8992963 45.864655 12.208838 0 255 0
-2.8391929 50.94326 12.209255 0 255 0
-0.4477762 53.497807 7.5002074 0 255 0
-0.61932671 69.347519 5.3974085 0 255 0
5.157548 61.879982 10.134024 0 255 0
3.7080691 60.599403 14.420097 0 255 0
-3.5974488 74.114807 6.8831348 0 255 0
-5.4976683 71.94014 11.911396 0 255 0
3.3767858 52.614662 11.166373 0 255 0
3.3509502 67.031143 6.4525595 0 255 0
-5.1175165 63.814465 9.0628366 0 255 0
3.1422424 51.282757 11.176 0 255 0
-0.36564127 50.514694 8.0120239 0 255 0
0.76005769 36.36562 10.274638 0 255 0
0.72905886 27.57675 11.669236 0 255 0
5.612144 67.712318 10.228767 0 255 0
-0.93403667 23.035841 10.943227 0 255 0
-2.8758531 76.48201 15.561106 0 255 0
3.4029374 77.998947 15.072878 0 255 0
-3.8569694 74.297241 14.938042 0 255 0
-0.63189256 40.707573 14.539683 0 255 0
2.0398245 71.474731 5.814311 0 255 0
5.1354752 73.695847 9.0713511 0 255 0
-3.4638834 62.698669 15.102123 0 255 0
-3.0831819 51.156055 11.456044 0 255 0
-3.618381 41.379005 11.811363 0 255 0
-0.65448046 16.090418 10.433211 0 255 0
2.8444881 44.611851 9.1916046 0 255 0
4.1588221 66.099197 14.858431 0 255 0
-4.350616 62.964802 14.19402 0 255 0
-5.2620773 62.741505 9.9426212 0 255 0
0.073462024 5.296207 12.077176 255 0 0
-4.002449 61.530323 14.302517 0 255 0
-5.1445985 63.205574 9.2945194 0 255 0
1.1967425 61.666176 5.9317484 0 255 0
4.927084 62.479469 9.0140648 0 255 0
-2.6609282 52.210979 9.0669641 0 255 0
5.1961451 69.032211 8.7758732 0 255 0
-3.1079717 63.244221 6.5741558 0 255 0
0.6801365 82.673904 9.4773483 0 255 0
5.3784823 62.782997 11.251908 0 255 0
-1.989862 69.206451 16.311327 0 255 0
5.3919077 74.243553 10.122384 0 255 0
-5.0498629 78.537033 9.6509123 0 255 0
-3.3571146 77.3153 15.16969 0 255 0
3.8950188 75.233849 7.1959944 0 255 0
0.0070401789 34.585983 12.062282 0 255 0
-2.7458746 71.111969 6.0911722 0 255 0
-1.9537406 58.665298 6.8074617 0 255 0
-1.2148327 70.895943 5.5181828 0 255 0
-2.2262509 68.195335 16.232464 0 255 0
-2.5058017 59.951687 15.262464 0 255 0
-1.0789745 79.721771 15.654905 0 255 0
-0.3050459 12.262667 10.232042 0 255 0
-0.23356354 80.276031 6.5943327 0 255 0
-3.3687577 76.883011 6.8721375 0 255 0
3.1981869 79.527924 7.3739805 0 255 0
3.8287115 55.1465 10.338979 0 255 0
3.684375 58.710075 13.84398 0 255 0
-5.2329407 70.609146 13.069086 0 255 0
-0.15700918 53.657112 14.601893 0 255 0
0.011210468 29.319012 12.014627 0 255 0
-0.30312094 6.7503595 10.335079 255 0 0
4.4326849 69.974945 14.499781 0 255 0
-4.8184457 71.12822 13.934825 0 255 0
3.5313015 43.408417 11.146294 0 255 0
0.75781912 56.231972 15.067698 0 255 0
2.9027605 49.137566 11.067883 0 255 0
2.2232301 47.645889 9.1807871 0 255 0
-2.6106434 79.806458 14.931248 0 255 0
4.4082847 66.762451 7.46733 0 255 0
2.4287505 44.80011 8.6979866 0 255 0
1.1484785 62.705933 16.262407 0 255 0
2.9889493 81.321869 12.97056 0 255 0
0.7682128 10.939635 11.25775 35 224 5
-1.4944667 48.380741 8.5709658 0 255 0
0.65136415 55.970222 7.0062485 0 255 0
5.0637941 68.525169 8.4281359 0 255 0
-5.4676547 71.026634 9.6139994 0 255 0
-3.5623164 72.486259 15.272612 0 255 0
1.1500337 39.403389 10.386837 255 255 255
-0.53161275 47.681816 13.848936 0 255 0
-0.046225682 13.212137 11.865726 0 255 0
-3.5372729 53.348877 11.07049 0 255 0
-5.0060415 71.757469 8.5336542 0 255 0
-3.7719374 79.374893 7.8741093 0 255 0
0.5348866 61.299351 5.899848 2 255 2
-2.9988329 63.909687 6.4027443 0 255 0
-0.23485282 6.0388675 10.395025 255 0 0
4.4576497 69.219139 7.5376616 0 255 0
-2.9602306 42.056065 13.134266 0 255 0
-2.9015491 49.186302 10.93647 0 255 0
-2.6330309 41.11005 13.670451 0 255 0
0.73704904 51.400623 7.9288697 0 255 0
1.8943865 70.189911 5.7031269 0 255 0
0.8876704 19.371563 10.841839 0 255 0
0.14412721 74.68425 16.484909 0 255 0
-2.4640973 41.34684 8.2588892 0 255 0
-0.15268163 73.939468 5.5115604 0 255 0
3.5759108 57.131638 13.436348 0 255 0
-0.36525717 77.273148 16.353266 0 255 0
-4.2273607 56.733086 10.760789 0 255 0
-2.8976367 77.090271 6.5121489 0 255 0
-3.2627883 55.624763 8.7194672 0 255 0
0.59281206 57.983475 15.470647 0 255 0
-1.0117035 31.492254 11.078611 0 255 0
-3.4516263 61.85062 14.951941 0 255 0
0.29841527 45.628902 14.185594 0 255 0
-0.75715584 23.748455 11.576143 0 255 0
2.9926512 54.511169 13.273474 0 255 0
-5.0238862 65.12529 8.55089 0 255 0
-0.19209746 22.615234 10.10118 0 255 0
-1.8774405 41.284477 7.802403 0 255 0
-2.0338635 39.866585 11.319518 0 255 0
2.0382147 40.820114 14.039562 0 255 0
1.5365391 39.722359 11.86845 0 255 0
-1.0029413 73.843582 16.412466 0 255 0
-0.91217959 48.605503 8.2980042 0 255 0
2.2790084 80.24054 7.1703491 0 255 0
-4.7964973 72.015823 13.905516 0 255 0
2.329809 81.416908 8.4348669 0 255 0
-3.128402 81.731277 11.243292 0 255 0
-2.6380594 71.433769 15.970993 0 255 0
-5.5998297 71.969437 11.126489 0 255 0
2.4283941 61.941528 6.3522587 0 255 0
0.10054156 60.579498 16.056269 0 255 0
0.31372276 6.8608432 11.794763 255 0 0
-0.73314762 82.673904 10.17708 0 255 0
0.31224346 29.945705 11.965992 0 255 0
-2.8839111 70.323853 15.899547 0 255 0
-3.4303873 61.411274 7.1456647 0 255 0
4.8430147 60.920181 9.4497881 0 255 0
3.5292056 81.382553 11.026936 0 255 0
0.26354831 82.605515 13.004757 0 255 0
0.22018918 32.465511 12.015373 0 255 0
1.3341451 65.549225 16.496618 0 255 0
2.0481741 47.063831 13.1417 0 255 0
3.2871404 54.276882 12.748632 0 255 0
1.2987518 82.068718 13.435476 0 255 0
3.662497 62.09655 7.1948185 0 255 0
-3.4867864 67.67395 6.548749 0 255 0
-3.084713 45.748951 11.779517 0 255 0
-2.0154366 62.02747 6.1673198 0 255 0
0.76457083 74.882042 16.39377 0 255 0
-4.9845715 63.632164 13.239591 0 255 0
-5.619875 66.775726 10.35871 0 255 0
-4.9723649 60.695293 11.798701 0 255 0
-5.1165419 66.138557 13.403695 0 255 0
3.9408896 78.092621 14.548004 0 255 0
0.41741264 18.479845 10.219979 0 255 0
4.6162338 74.644485 8.0902691 0 255 0
-5.3414011 69.493134 12.879154 0 255 0
-0.23707783 52.96032 14.45058 0 255 0
-0.8156758 70.253433 16.588631 0 255 0
5.1966066 75.106644 9.3946962 0 255 0
-2.672591 40.159096 11.848039 0 255 0
-4.0015416 61.078136 7.8483305 0 255 0
3.6235023 62.2472 14.894685 0 255 0
-0.86742902 29.489265 11.517052 0 255 0
3.1045995 71.542809 15.671064 0 255 0
-1.3797572 58.955139 6.5047035 0 255 0
-4.2209306 70.9431 7.3057423 0 255 0
4.6788797 70.797089 14.138312 0 255 0
-1.4416313 53.152294 14.179743 0 255 0
1.2440513 41.024208 7.5400248 0 255 0
-5.4170036 72.812645 12.24354 0 255 0
-2.3692539 67.869179 5.861609 0 255 0
0.80433464 68.598824 16.625648 0 255 0
-2.5206983 74.105583 15.891146 0 255 0
-0.31990093 61.774475 5.8000031 0 255 0
1.0521384 43.598278 7.6670265 0 255 0
-1.5852361 39.628464 10.943434 0 255 0
-2.9846342 70.94178 15.793208 0 255 0
0.76087201 81.796753 8.0321512 0 255 0
-2.5628722 45.473892 9.07689 0 255 0
1.7630713 56.153862 7.3088326 0 255 0
-0.79730898 67.147667 5.4105415 0 255 0
2.8194132 48.709953 11.54644 0 255 0
-0.11468374 44.437122 14.425518 0 255 0
0.91486847 31.776695 10.575185 0 255 0
0.36464357 54.12912 7.3616929 0 255 0
-4.5191932 68.90004 7.6067076 0 255 0
-4.985333 72.942078 8.6145163 0 255 0
-3.1421335 81.518112 12.217054 0 255 0
-2.5336051 82.24073 11.021123 0 255 0
-0.2609168 29.449841 10.048861 0 255 0
0.33839601 14.470607 10.225301 0 255 0
0.041026365 4.0188007 11.251652 255 0 0
3.4235997 61.04303 14.812301 0 255 0
-0.1939325 39.254654 9.8393106 255 255 255
0.63146287 19.705816 10.358541 0 255 0
-3.182013 74.698631 15.431714 0 255 0
-1.937114 40.090057 9.2435675 0 255 0
4.8778553 61.658413 9.2155199 0 255 0
-5.3362513 76.318954 11.581844 0 255 0
4.4110689 74.224197 14.241512 0 255 0
-1.1063851 68.587547 16.586124 0 255 0
-3.4356432 40.602177 11.61498 0 255 0
-2.0819707 66.586884 16.274933 0 255 0
-4.0772362 71.93042 14.848448 0 255 0
3.0083508 40.801189 8.9926529 0 255 0
-3.6235561 63.545944 15.101229 0 255 0
-0.21543328 38.916039 12.079714 0 255 0
-1.6792293 73.047638 5.7367778 0 255 0
4.4247708 76.410919 14.054257 0 255 0
-0.74084336 69.133461 16.62253 0 255 0
1.509527 46.762115 8.423665 0 255 0
5.4056516 65.530464 12.617527 0 255 0
0.76250261 22.479855 11.550488 0 255 0
-3.9677968 57.084488 9.3573761 0 255 0
-0.99048698 29.199469 10.948217 0 255 0
3.4461744 68.359314 6.5105205 0 255 0
-2.5896528 49.34763 12.327742 0 255 0
-4.029748 80.336891 12.713413 0 255 0
5.1565828 62.300274 9.645998 0 255 0
-0.59876478 82.292419 8.6291351 0 255 0
-1.3055871 55.226807 14.69787 0 255 0
0.1298539 20.499752 11.919249 0 255 0
1.7822685 63.114475 5.9066658 0 255 0
-2.2084107 44.038509 13.66751 0 255 0
-0.72953182 28.224928 10.353148 0 255 0
0.91885722 46.668385 8.1619854 0 255 0
4.0496297 55.867508 10.837318 0 255 0
-3.7984107 64.815903 6.9125681 0 255 0
0.94523478 47.409435 8.2769156 0 255 0
3.2875929 72.167412 15.499378 0 255 0
-0.89708221 51.879761 14.151117 0 255 0
0.58768153 65.956879 16.617718 0 255 0
2.2986131 41.657585 8.1634455 0 255 0
0.98543018 63.078117 5.7004695 0 255 0
1.8978678 81.287849 7.9421463 0 255 0
0.086912975 49.477619 13.930016 0 255 0
4.7606983 59.388424 10.514824 0 255 0
-2.2306628 61.306549 6.3729591 0 255 0
0.047185134 40.726181 14.627501 0 255 0
0.54023659 23.343681 11.783775 0 255 0
1.9705318 61.738491 15.835815 0 255 0
-0.66657132 39.749084 9.3505611 0 255 0
-1.0299168 33.69413 11.089535 0 255 0
1.7575935 43.713852 14.061885 0 255 0
-5.4890962 73.778954 10.690068 0 255 0
-5.4786816 65.15506 12.199539 0 255 0
-1.7343525 46.480011 13.484928 0 255 0
-3.1232641 75.031509 6.5743141 0 255 0
-0.93013185 68.429634 5.4186163 0 255 0
-4.1896572 74.252037 7.5034652 0 255 0
4.746973 79.178299 12.583173 0 255 0
-0.3719309 42.689915 7.454545 0 255 0
-0.22603329 32.689365 10.014719 0 255 0
4.4774275 77.334686 13.951078 0 255 0
4.7716641 71.90123 8.0859852 0 255 0
-1.9529343 82.618713 11.406387 0 255 0
1.4618227 66.351273 16.524717 0 255 0
-2.1487794 69.285957 5.7876692 0 255 0
2.8097868 46.701176 10.003349 0 255 0
-1.0411284 39.135155 11.460581 255 255 255
-4.3172188 57.376675 11.653162 0 255 0
-5.5133252 64.24868 11.433166 0 255 0
0.16090402 13.786979 10.175692 0 255 0
3.8261855 55.578262 12.169622 0 255 0
4.8194981 65.792267 13.969433 0 255 0
0.27662072 56.785965 15.251731 0 255 0
-0.64961183 72.316284 5.5006671 0 255 0
4.7638717 59.625893 11.869018 0 255 0
-5.6306238 67.473442 11.644047 0 255 0
2.3362999 52.897167 8.4931097 0 255 0
-0.4188264 17.845238 10.226634 0 255 0
2.0369639 82.33062 9.7381716 0 255 0
-3.6485467 68.823372 15.35308 0 255 0
-5.6423063 68.514336 10.443084 0 255 0
-4.8685675 65.851479 13.910881 0 255 0
1.1987193 80.875038 14.811187 0 255 0
1.7893987 56.52906 14.799349 0 255 0
-2.9649162 62.749271 15.494515 0 255 0
2.9054637 80.252823 14.369779 0 255 0
-0.8344897 13.124305 10.85691 0 255 0
-5.3045287 66.36956 9.048583 0 255 0
3.8898771 61.582306 7.5692539 0 255 0
-0.048791733 72.003593 5.4090414 0 255 0
-2.8678663 58.916225 14.723516 0 255 0
-0.59842753 10.893434 10.420361 35 234 15
-0.15615295 24.667511 10.07787 0 255 0
-0.86417437 63.001366 5.6925964 0 255 0
-0.493168 63.131321 16.401196 0 255 0
-3.3246386 71.149513 6.5094304 0 255 0
-5.4400415 64.5392 9.8088217 0 255 0
-3.6520998 41.153419 10.36155 0 255 0
-2.3175836 70.434258 16.146711 0 255 0
1.8149716 67.335907 5.6377454 0 255 0
3.5150986 53.454311 10.63091 0 255 0
5.2576985 71.395561 12.927692 0 255 0
-1.0497285 36.923267 11.154922 0 255 0
4.0717969 73.773666 7.3122206 0 255 0
2.5190639 48.659637 12.413265 0 255 0
-0.57361978 42.103458 14.608008 0 255 0
0.45540866 41.270489 14.694432 0 255 0
5.2475691 74.483376 9.440567 0 255 0
2.930181 40.478962 12.706349 0 255 0
2.7651455 44.004456 8.9518976 0 255 0
-3.0573452 43.962898 9.3677139 0 255 0
2.0878391 48.512501 12.984837 0 255 0
0.22000967 79.272629 15.978474 0 255 0
-1.1698982 49.45031 8.3618317 0 255 0
-1.134979 75.334839 5.7077408 0 255 0
2.8208904 65.105789 15.889082 0 255 0
0.70517772 36.726944 11.807172 0 255 0
-1.0897259 43.293003 14.386396 0 255 0
3.0764465 81.779114 10.807859 0 255 0
-1.3341668 51.380775 13.876277 0 255 0
2.6910067 47.063034 12.185631 0 255 0
-0.95026869 37.529625 11.502271 0 255 0
1.6306446 47.584682 8.6320133 0 255 0
-2.1182125 60.088654 6.5676579 0 255 0
0.017749101 3.7762053 10.478183 255 0 0
3.5842037 40.947395 11.973047 0 255 0
5.3593745 62.988941 10.437493 0 255 0
0.83382773 24.061459 10.560065 0 255 0
4.6166897 71.179062 7.8369026 0 255 0
2.219831 52.277191 8.5483294 0 255 0
-3.0428071 41.192459 8.9015741 0 255 0
2.2475893 50.518295 8.9737701 0 255 0
-0.87764269 25.188934 10.639382 3 255 3
-5.4892893 72.228699 10.144101 0 255 0
-3.5759547 42.790306 11.245163 0 255 0
4.1434565 68.270775 14.933731 0 255 0
-0.27794886 75.033028 5.5806346 0 255 0
-5.5998387 65.671829 11.499026 0 255 0
2.4540043 74.475739 15.899577 0 255 0
0.35692126 7.5564551 11.256645 255 0 0
-0.16328314 39.855625 13.043445 0 255 0
2.3466399 40.211926 12.728957 0 255 0
3.5891552 42.09866 11.579366 0 255 0
2.6763597 43.430649 8.7310019 0 255 0
5.39217 63.685516 11.902458 0 255 0
-2.7167397 62.272934 6.4359236 0 255 0
2.1580911 48.728497 9.1209068 0 255 0
4.5380368 68.583221 14.411153 0 255 0
3.7654634 54.899178 11.768343 0 255 0
-2.3583908 47.619835 9.3549376 0 255 0
-2.6892164 43.356178 8.7366381 0 255 0
-4.4747958 71.501961 14.358294 0 255 0
-1.1832247 58.232014 6.5864534 0 255 0
2.8725412 66.390549 15.937842 0 255 0
-0.5182479 37.11483 11.948954 0 255 0
1.6934385 50.801491 13.575824 0 255 0
1.9567449 39.836979 10.674265 0 255 0
-0.92903417 77.952507 5.7960014 0 255 0
-5.5170331 70.889153 12.084112 0 255 0
-1.210623 78.306305 16.140598 0 255 0
3.1748042 60.41507 14.857006 0 255 0
4.9203978 63.323582 13.310237 0 255 0
-5.4399152 66.306595 12.647379 0 255 0
-0.90225446 20.658468 11.166497 0 255 0
4.6329956 61.025627 13.13937 0 255 0
-2.4071481 70.371735 5.9197097 0 255 0
-0.71650869 24.549114 11.640927 0 255 0
-1.5837142 48.761452 13.414067 0 255 0
-0.35055467 30.763529 10.073298 0 255 0
4.7394261 59.203506 11.384523 0 255 0
-5.4299784 65.644684 9.4559507 0 255 0
3.4045181 76.153091 6.8564291 0 255 0
-2.8415077 49.374687 11.618826 0 255 0
-0.0051892702 75.301003 16.473927 0 255 0
5.5684609 65.275063 10.46263 0 255 0
4.1940842 60.196762 8.3666935 0 255 0
0.78502142 63.611145 16.413364 0 255 0
4.2056122 56.539139 11.114866 0 255 0
5.4715643 69.980492 9.4935398 0 255 0
1.1458551 52.265785 14.120634 0 255 0
-3.6279802 81.195068 11.667581 0 255 0
-0.88534659 27.485207 10.604096 9 255 9
0.81799889 21.709085 11.454351 0 255 0
3.7085037 79.347214 7.7717915 0 255 0
2.6599913 62.598648 6.3420091 0 255 0
1.4176781 58.823414 6.5499549 0 255 0
-5.0556688 67.651878 13.616813 0 255 0
0.49262035 42.049355 7.4196219 0 255 0
-3.3761935 62.684746 6.8644505 0 255 0
-2.026027 70.858788 5.7821178 0 255 0
-4.0547123 68.267593 15.049334 0 255 0
5.29737 62.105145 10.938513 0 255 0
0.37720057 15.403807 10.232595 0 255 0
0.83010888 12.74979 10.848172 0 255 0
-4.6425762 59.270229 12.22603 0 255 0
-3.7187905 41.354454 10.981792 0 255 0
5.2624922 68.194046 13.131567 0 255 0
4.8044395 77.533867 8.6787434 0 255 0
-1.789739 73.34259 16.233486 0 255 0
1.9079111 39.945961 9.8072929 0 255 0
1.2381618 54.754654 14.616677 0 255 0
-5.3739004 62.942482 11.446207 0 255 0
3.5068128 81.285149 10.100159 0 255 0
-4.9065719 71.05455 8.2205582 0 255 0
-2.152879 57.674355 14.916529 0 255 0
0.45275986 19.118364 10.228485 0 255 0
1.9006144 61.56229 6.1949253 0 255 0
1.897558 82.065292 9.0218763 0 255 0
-3.7992232 71.190613 15.155693 0 255 0
-0.94992352 27.32766 11.262672 0 255 0
-2.3076007 43.785965 8.4061928 0 255 0
3.6642685 74.029953 15.102047 0 255 0
0.79532909 37.551357 11.727536 0 255 0
-5.5502677 71.166374 10.284025 0 255 0
4.1082134 73.098007 7.3065071 0 255 0
-0.64414465 27.857946 11.755135 0 255 0
3.0902565 54.571758 8.8640633 0 255 0
-5.273941 65.582359 12.943019 0 255 0
5.0549011 62.336727 12.652906 0 255 0
2.2880566 64.643364 5.9475179 0 255 0
2.1522813 58.293106 6.9731731 0 255 0
2.891736 77.696564 15.505989 0 255 0
1.1174397 70.723892 16.532875 0 255 0
5.3093219 70.607841 9.1465187 48 255 48
-2.047653 40.69968 8.1015673 0 255 0
-0.67891008 58.745789 6.4126835 0 255 0
5.2316413 64.668877 12.912641 0 255 0
-4.3916068 58.073502 12.206175 0 255 0
-0.14920525 27.521696 11.980216 0 255 0
-5.6970129 68.300247 11.202673 0 255 0
-0.54682446 10.075539 10.373796 255 0 0
-2.5483906 44.335567 8.735014 0 255 0
-0.99036062 39.544758 12.094365 255 255 255
-0.41291517 19.686874 11.824802 0 255 0
1.2432561 76.756577 5.789248 0 255 0
3.3685908 69.016426 15.562718 0 255 0
-5.1792288 78.568321 10.67163 0 255 0
-5.0740728 60.779747 11.145662 0 255 0
-2.2745748 65.41777 5.8954144 0 255 0
0.012036204 82.673904 12.323447 0 255 0
-0.65975416 14.833085 11.573222 0 255 0
-1.3155941 50.721436 13.774109 0 255 0
0.88424224 18.415825 10.880772 0 255 0
3.2543201 77.004929 6.7891431 0 255 0
0.65432996 82.081131 13.669978 0 255 0
-0.78950274 31.049761 11.641477 0 255 0
5.1852918 64.492134 9.0413637 0 255 0
1.0527225 48.272835 8.3650999 0 255 0
0.71912384 57.378128 15.322468 0 255 0
1.5130615 73.765869 16.326139 0 255 0
-0.59946311 9.7028666 10.924695 255 0 0
3.1595125 57.121014 13.975238 0 255 0
-0.75735855 76.371475 5.7070622 0 255 0
1.0012854 77.34182 5.7623143 73 255 73
5.3433614 75.495445 10.20759 0 255 0
-4.4641418 61.075783 8.460001 0 255 0
-0.57171571 15.980154 11.67716 0 255 0
5.6285648 65.205414 11.082483 0 255 0
-1.160058 77.079773 5.7858129 0 255 0
-0.4161247 82.673904 11.725718 0 255 0
0.68936038 49.009834 8.2027245 0 255 0
-0.95241773 35.708 10.575428 0 255 0
